# .PCD v.5 - Point Cloud Data file format
FIELDS x y z
SIZE 4 4 4
TYPE F F F
WIDTH 2093
HEIGHT 1
POINTS 2093
DATA ascii
-2.5 1.04701 1.17489 
-2.5 0.559328 0.750221 
-2.5 -1.35632 0.60068 
-2.5 -1.93663 1.03175 
-2.5 -1.52432 1.07372 
-2.5 0.0270853 2.24548 
-2.5 -0.539033 2.25738 
-2.5 -1.16222 0.416959 
-2.5 -2.14202 1.73414 
-2.5 -0.369198 2.13622 
-2.5 1.22631 1.23699 
-2.5 -0.664312 -0.523774 
-2.5 -2.03276 -1.45764 
-2.5 -1.46817 0.734352 
-2.5 -2.00819 -1.87696 
-2.5 -1.35006 -0.680487 
-2.5 0.743202 0.952712 
-2.5 2.04726 2.34466 
-2.5 -0.2987 -0.188375 
-2.5 0.687658 1.62091 
-2.5 -1.61481 0.205008 
-2.5 -1.70621 0.756935 
-2.5 -2.03139 2.02071 
-2.5 -0.640202 0.0481429 
-2.5 -2.25845 1.91527 
-2.5 0.606021 2.45941 
-2.5 -0.229881 1.75108 
-2.5 -1.7935 1.93052 
-2.5 -2.15575 -0.458464 
-2.5 -0.553377 0.799966 
-2.5 -1.76023 1.50204 
-2.5 -1.44101 -0.120624 
-2.5 0.820566 2.47909 
-2.5 -1.80784 -1.37753 
-2.5 -0.213095 0.78898 
-2.5 1.22524 1.67875 
-2.5 -1.39996 1.12545 
-2.5 -1.64563 2.35794 
-2.5 1.58902 2.00545 
-2.5 1.367 1.75443 
-2.5 -0.863598 -0.0307474 
-2.5 -0.904187 -0.785165 
-2.5 1.27407 1.37616 
-2.5 -0.678808 0.636387 
-2.5 -1.64518 -0.149312 
-2.5 0.194174 0.94676 
-2.5 -2.34405 0.645848 
-2.5 -2.46094 -0.347224 
-2.5 0.408261 0.543763 
-2.5 1.17794 1.45627 
-2.5 -0.0461593 0.55002 
-2.5 0.440458 0.819345 
-2.5 -2.34954 1.59177 
-2.5 1.92213 2.04405 
-2.5 -1.26568 0.0757623 
-2.5 -2.01064 -0.2369 
-2.5 -1.52585 0.600375 
-2.5 -0.912427 0.545442 
-2.5 0.923414 2.07305 
-2.5 -0.976363 0.240104 
-2.5 -1.1607 1.46634 
-2.5 -1.52722 1.81959 
-2.5 -2.04909 1.49792 
-2.5 -0.109638 0.297327 
-2.5 -0.419401 1.40179 
-2.5 0.405515 1.34381 
-2.5 -0.988571 0.819498 
-2.5 -0.869701 1.65723 
-2.5 -0.862835 1.92824 
-2.5 -0.443205 2.16872 
-2.5 0.598544 1.92701 
-2.5 -2.46979 -0.74778 
-2.5 -2.34329 -1.95112 
-2.5 -2.42416 -1.7468 
-2.5 0.539033 0.830027 
-2.5 -2.43591 1.32504 
-2.5 0.325403 1.75855 
-2.5 0.717261 1.36212 
-2.5 -2.42691 1.42315 
-2.5 0.346309 0.371639 
-2.5 0.046617 1.82279 
-2.5 -1.56156 -1.03038 
-2.5 -0.423978 2.04756 
-2.5 -1.99812 2.25555 
-2.5 -1.5936 -1.40545 
-2.5 -1.42346 0.283593 
-2.5 -0.843608 2.39898 
-2.5 -1.54935 0.425962 
-2.5 -2.48779 -0.600375 
-2.5 -1.36166 1.87773 
-2.5 -1.17412 -0.299615 
-2.5 -0.90083 0.412076 
-2.5 -0.757393 1.78556 
-2.5 -1.78465 0.881756 
-2.5 -0.893353 -0.772805 
-2.5 0.335169 0.868938 
-2.5 -0.0324259 1.91984 
-2.5 -0.88786 2.08174 
-2.5 -1.86323 -0.299768 
-2.5 -2.34649 -1.42895 
-2.5 -0.295038 2.2467 
-2.5 -1.60245 2.28027 
-2.5 -0.913343 0.0284585 
-2.5 -1.96059 1.06014 
-2.5 0.808511 1.56583 
-2.5 -0.838725 0.00160217 
-2.5 1.83271 2.30026 
-2.5 -1.69172 0.0397505 
-2.5 -2.47864 0.027543 
-2.5 -0.950575 -0.48349 
-2.5 -2.20794 2.15438 
-2.5 -2.48947 1.76862 
-2.5 0.703528 2.15331 
-2.5 0.57535 1.3847 
-2.5 -1.34793 1.17855 
-2.5 -1.38745 -0.435881 
-2.5 1.38562 1.70209 
-2.5 -0.15099 -0.129932 
-2.5 -2.37625 -0.500427 
-2.5 0.320978 2.00682 
-2.5 0.63776 1.69813 
-2.5 0.00450134 2.20946 
-2.5 -2.04878 -1.19274 
-2.5 -2.31033 1.63526 
-2.5 -0.838572 2.23769 
-2.5 -2.29217 2.34237 
-2.5 -1.52631 -0.885418 
-2.5 -2.45407 0.585269 
-2.5 -2.38098 2.3497 
-2.5 -1.40927 0.12978 
-2.5 -0.379116 1.27468 
-2.5 1.29727 2.08876 
-2.5 -1.37921 1.84126 
-2.5 -1.87559 1.18999 
-2.5 0.542848 0.912122 
-2.5 -2.15407 2.12615 
-2.5 -0.362331 2.29934 
-2.5 -1.41354 0.530335 
-2.5 -2.08174 0.96263 
-2.5 -1.83042 0.0403607 
-2.5 -1.08577 -0.420011 
-2.5 0.0853755 0.372097 
-2.5 -0.861919 0.461364 
-2.5 -1.97188 0.862987 
-2.5 -0.923566 1.10164 
-2.5 -2.2322 0.876568 
-2.5 0.135884 0.417264 
-2.5 -1.03587 1.55332 
-2.5 -0.179678 1.4024 
-2.5 -0.168996 0.197836 
-2.5 -0.962783 -0.92906 
-2.5 -1.88993 -1.57788 
-2.5 -1.17809 -0.0919369 
-2.5 1.26858 2.06969 
-2.5 -0.18685 2.06923 
-2.5 -0.0336466 -0.0156407 
-2.5 -1.20357 0.439085 
-2.5 -1.51685 0.556581 
-2.5 -0.991623 0.67072 
-2.5 -2.4472 1.05907 
-2.5 -0.668889 0.24926 
-2.5 -2.37625 0.969039 
-2.5 -1.32931 2.1704 
-2.5 -2.06313 -1.87803 
-2.5 1.09767 2.27599 
-2.5 -1.96455 0.526063 
-2.5 0.653935 2.22533 
-2.5 -2.13561 -0.907544 
-2.5 0.665075 0.757546 
-2.5 -0.670415 1.68668 
-2.5 -0.940199 1.99293 
-2.5 -0.6077 0.258568 
-2.5 0.33929 1.30322 
-2.5 -1.60855 -0.784249 
-2.5 -1.83119 -0.275201 
-2.5 0.83079 2.23052 
-2.5 -1.75169 0.579012 
-2.5 -2.45682 0.775094 
-2.5 0.611515 1.66196 
-2.5 -2.48032 1.55957 
-2.5 0.556886 1.81608 
-2.5 0.114521 0.661412 
-2.5 -1.50082 1.23714 
-2.5 2.32055 2.33001 
-2.5 -2.4852 2.35687 
-2.5 1.04015 1.52066 
-2.5 -1.57483 2.16186 
-2.5 1.14635 1.28262 
-2.5 0.476012 0.493408 
-2.5 -0.425046 -0.119709 
-2.5 2.14812 2.21679 
-2.5 -1.33373 -0.503021 
-2.5 -1.08821 -1.01405 
-2.5 -2.31384 -0.015183 
-2.5 -1.65052 1.70972 
-2.5 0.546968 2.39349 
-2.5 1.06731 1.90657 
-2.5 -1.53561 -0.53415 
-2.5 1.42758 2.33337 
-2.5 -1.40652 0.860851 
-2.5 -1.44375 0.0774409 
-2.5 -2.11623 -1.66913 
-2.5 -1.97935 0.566958 
-2.5 1.84996 2.2766 
-2.5 -0.611057 0.62006 
-2.5 1.09798 2.39181 
-2.5 -1.75138 1.06319 
-2.5 -2.04253 2.04054 
-2.5 -1.73307 -1.08501 
-2.5 1.80616 2.35046 
-2.5 0.728858 1.48556 
-2.5 -1.18358 1.07112 
-2.5 1.51379 2.46551 
-2.5 -0.208823 0.655309 
-2.5 -2.05977 0.0243386 
-2.5 -0.177236 1.6937 
-2.5 0.453123 1.48373 
-2.5 -0.651036 -0.461058 
-2.5 0.301142 1.7613 
-2.5 -2.02544 1.91572 
-2.5 -0.413755 1.77366 
-2.5 -2.48413 -0.331507 
-2.5 -1.85575 -1.42178 
-2.5 -1.69675 1.89375 
-2.5 -0.357295 -0.0807979 
-2.5 -2.25051 -0.686895 
-2.5 1.47336 1.58261 
-2.5 -0.469298 1.05708 
-2.5 -1.86705 1.40072 
-2.5 -0.465941 1.93938 
-2.5 1.20174 2.36114 
-2.5 -2.40585 -0.443968 
-2.5 -1.35647 0.907086 
-2.5 0.197378 0.563906 
-2.5 0.0649283 1.86048 
-2.5 2.0848 2.3236 
-2.5 -1.08699 1.95158 
-2.5 0.251091 2.30041 
-2.5 -0.163503 1.39798 
-2.5 -1.03069 0.000686646 
-2.5 -1.91237 -1.25332 
-2.5 -0.0395977 1.87147 
-2.5 -0.14565 0.478454 
-2.5 -1.82249 -0.850932 
-2.5 -2.3178 -0.0572986 
-2.5 -0.453124 0.425504 
-2.5 0.970107 1.69446 
-2.5 -1.52478 1.45001 
-2.5 0.427183 1.14086 
-2.5 -1.21517 2.23159 
-2.5 0.545595 1.45703 
-2.5 -1.54752 -1.33801 
-2.5 -1.358 0.139851 
-2.5 -1.33969 0.722755 
-2.5 -2.31872 -0.785623 
-2.5 0.0452437 0.906323 
-2.5 -2.34329 2.41363 
-2.5 -0.529115 1.84431 
-2.5 -0.8137 1.63266 
-2.5 -0.386441 0.554598 
-2.5 -0.61716 1.7819 
-2.5 -1.68897 2.15255 
-2.5 -1.90031 -0.257805 
-2.5 -1.25759 1.88704 
-2.5 -1.4346 0.174795 
-2.5 -0.0817134 0.00740051 
-2.5 -2.04421 1.0493 
-2.5 -2.46139 1.96028 
-2.5 0.624332 1.54675 
-2.5 0.567415 2.08602 
-2.5 -0.124134 0.409329 
-2.5 -0.926466 -0.817667 
-2.5 0.834605 2.28927 
-2.5 -1.08959 0.6077 
-2.5 -0.127186 -0.0672169 
-2.5 -1.3554 2.03841 
-2.5 0.263604 0.896863 
-2.5 1.19182 1.81272 
-2.5 -2.05672 -0.945235 
-2.5 -0.0727103 2.10387 
-2.5 -1.95387 -0.869854 
-2.5 -0.837657 -0.687048 
-2.5 -2.39898 -0.182882 
-2.5 1.08989 1.96181 
-2.5 0.250481 2.33032 
-2.5 -2.42111 -1.93907 
-2.5 -1.96074 0.073626 
-2.5 -0.749 -0.333491 
-2.5 0.248649 1.33221 
-2.5 0.00175476 2.22701 
-2.5 0.678503 2.36618 
-2.5 -1.11217 2.10997 
-2.5 -1.53729 0.629826 
-2.5 0.15862 1.3638 
-2.5 -2.05306 -1.02779 
-2.5 0.334559 2.32543 
-2.5 -1.48648 2.21068 
-2.5 -2.49237 1.59726 
-2.5 -1.95738 1.6908 
-2.5 -2.13881 -0.051042 
-2.5 -0.580691 0.886334 
-2.5 -0.736183 -0.106891 
-2.5 -1.82035 0.7284 
-2.5 -1.61054 -0.80195 
-2.5 -0.45526 1.55622 
-2.5 -1.93922 -0.170675 
-2.5 1.18572 1.67676 
-2.5 -1.60169 0.32342 
-2.5 -1.96257 -0.885418 
-2.5 -1.40088 1.76527 
-2.5 -0.354549 2.27783 
-2.5 -1.4494 1.98927 
-2.5 -2.1765 1.09767 
-2.5 -1.99568 -0.814005 
-2.5 -1.85179 -0.643407 
-2.5 -0.470519 0.873974 
-2.5 -0.480895 0.0830867 
-2.5 0.267571 0.376369 
-2.5 -0.316858 1.5141 
-2.5 -2.10402 2.03185 
-2.5 -2.21328 -1.53851 
-2.5 -1.99751 -0.604648 
-2.5 0.66187 2.29125 
-2.5 -2.20595 -1.72361 
-2.5 1.4111 1.86918 
-2.5 -0.398648 0.593966 
-2.5 1.26598 1.45444 
-2.5 -2.32238 -1.53851 
-2.5 -2.03063 0.913342 
-2.5 -0.0542467 0.358516 
-2.5 0.167165 1.18404 
-2.5 -1.01207 -0.0141147 
-2.5 -0.186544 -0.0128942 
-2.5 -1.05724 1.13323 
-2.5 -1.87895 1.28536 
-2.5 -1.58109 -0.15038 
-2.5 -1.5878 -1.41781 
-2.5 -0.684454 0.805307 
-2.5 0.168691 1.73353 
-2.5 -0.331507 1.46207 
-2.5 -1.01176 -0.396359 
-2.5 -1.7671 1.17367 
-2.5 -0.562837 -0.243767 
-2.5 -0.344478 0.313807 
-2.5 -2.3207 0.656377 
-2.5 -0.968581 -0.669195 
-2.5 -1.78404 -1.26003 
-2.5 -1.75703 -1.0078 
-2.5 -0.944624 0.136952 
-2.5 -0.938215 -0.578402 
-2.5 -2.05 0.22103 
-2.5 -1.70041 1.60337 
-2.5 -0.845744 2.10448 
-2.5 -1.11248 -0.746712 
-2.5 1.05419 1.58612 
-2.5 -1.66562 -1.27743 
-2.5 1.74421 2.27371 
-2.5 -2.17513 1.35662 
-2.5 -1.28063 -0.652867 
-2.5 -2.40631 0.791421 
-2.5 -2.44705 0.310144 
-2.5 -2.36694 -1.25698 
-2.5 -1.84645 2.25478 
-2.5 -1.78526 -0.267113 
-2.5 0.31991 1.59421 
-2.5 -1.83592 2.15072 
-2.5 -1.27071 -0.248649 
-2.5 0.575655 2.47925 
-2.5 -1.99171 -0.763802 
-2.5 -2.07915 0.194479 
-2.5 -1.71491 -1.66349 
-2.5 -1.19243 0.485626 
-2.5 -1.85667 -0.0821711 
-2.5 2.28713 2.39029 
-2.5 -0.865123 -0.606784 
-2.5 -0.609989 1.94411 
-2.5 -1.96654 1.4198 
-2.5 -1.53577 2.22808 
-2.5 -1.61603 -1.00932 
-2.5 1.10775 2.23464 
-2.5 -1.03343 -0.770363 
-2.5 1.37585 1.97798 
-2.5 -2.23754 0.521638 
-2.5 -1.02565 0.967513 
-2.5 -0.940809 -0.266961 
-2.5 0.50058 1.42209 
-2.5 0.78486 2.07549 
-2.5 -0.0104525 1.88398 
-2.5 -2.41043 -1.04625 
-2.5 -2.46185 -1.38272 
-2.5 0.0849178 0.482879 
-2.5 -1.72803 -1.20678 
-2.5 -0.59244 2.09334 
-2.5 -2.24166 0.72718 
-2.5 -0.76136 -0.273064 
-2.5 0.414517 0.771584 
-2.5 0.962172 1.39248 
-2.5 -0.301752 2.10982 
-2.5 -1.09645 2.0291 
-2.5 -1.91984 -1.7938 
-2.5 2.35168 2.37594 
-2.5 1.74436 1.90077 
-2.5 2.03719 2.10845 
-2.5 0.228812 1.08409 
-2.5 -1.59009 0.0612658 
-2.5 -0.748848 1.85179 
-2.5 -2.18795 0.722144 
-2.5 -2.12264 0.280084 
-2.5 1.80601 2.00118 
-2.5 0.0235753 0.357753 
-2.5 0.138172 1.16039 
-2.5 -0.499664 1.51913 
-2.5 -1.86048 0.899915 
-2.5 -0.141072 2.06343 
-2.5 -1.97829 -0.457091 
-2.5 0.528809 1.95204 
-2.5 0.206534 1.48434 
-2.5 0.816599 1.40118 
-2.5 -0.290307 0.649052 
-2.5 -0.175558 1.12468 
-2.5 -2.42965 2.43713 
-2.5 -2.15117 -1.3786 
-2.5 -1.59329 -0.996658 
-2.5 -0.105213 1.25042 
-2.5 0.202719 2.37594 
-2.5 0.459227 0.613193 
-2.5 -1.84156 -1.57498 
-2.5 -2.03978 -0.315638 
-2.5 -0.755715 -0.169454 
2.5 0.770821 2.04268 
2.5 0.755715 1.57102 
2.5 2.49985 -2.01201 
2.5 1.80036 0.0371563 
2.5 -1.95601 2.20641 
2.5 1.84416 -0.792947 
2.5 1.07952 0.609226 
2.5 -0.946608 1.36258 
2.5 1.60565 0.145497 
2.5 -0.552461 2.10036 
2.5 1.02931 -1.00703 
2.5 1.0136 0.902814 
2.5 1.20098 1.22921 
2.5 0.0930052 0.439695 
2.5 2.23617 -2.03413 
2.5 1.48572 -1.14177 
2.5 2.05779 -0.882366 
2.5 2.35641 -1.38546 
2.5 1.44269 1.38318 
2.5 2.49496 -2.19375 
2.5 0.546815 1.73872 
2.5 1.3139 0.259484 
2.5 2.41699 2.36145 
2.5 0.565584 0.227744 
2.5 1.76115 -1.49594 
2.5 1.96013 2.30132 
2.5 2.46582 -0.557192 
2.5 2.27157 -0.662938 
2.5 -1.57941 2.34436 
2.5 1.82676 -1.47641 
2.5 1.947 -0.172048 
2.5 1.31359 0.343257 
2.5 0.687506 0.77723 
2.5 1.87239 -0.961257 
2.5 -0.694678 1.10759 
2.5 0.92906 0.0850704 
2.5 2.35458 -0.819651 
2.5 0.053026 1.82814 
2.5 2.33291 2.48779 
2.5 -1.56995 1.92763 
2.5 -1.04625 2.16735 
2.5 0.546358 0.412534 
2.5 -0.65363 1.26247 
2.5 2.07045 -0.78547 
2.5 2.23785 2.16689 
2.5 1.88734 0.0585194 
2.5 1.88627 1.49106 
2.5 1.87452 1.10073 
2.5 2.36068 1.7465 
2.5 0.624332 1.36105 
2.5 2.01033 -1.73124 
2.5 2.09853 0.852764 
2.5 0.652409 2.49893 
2.5 0.961104 0.293359 
2.5 1.66028 0.213553 
2.5 -0.026475 0.725196 
2.5 1.14193 0.803629 
2.5 1.40316 1.82157 
2.5 1.39554 1.18862 
2.5 -2.10707 2.40188 
2.5 0.830637 0.464263 
2.5 1.20434 0.347682 
2.5 2.45972 1.12239 
2.5 2.29476 0.338221 
2.5 -1.28475 2.21969 
2.5 0.843913 0.894879 
2.5 1.91694 -0.233696 
2.5 2.35244 1.01405 
2.5 1.43704 -0.130543 
2.5 1.37432 2.32147 
2.5 2.32406 -1.19625 
2.5 2.12233 0.733894 
2.5 0.432218 -0.158162 
2.5 1.15337 2.35305 
2.5 0.725349 1.0728 
2.5 1.21487 0.953475 
2.5 -0.948897 1.28109 
2.5 2.45621 1.3551 
2.5 -0.19509 1.81074 
2.5 -0.757546 1.24706 
2.5 2.32727 -2.14049 
2.5 0.713904 1.19411 
2.5 2.45682 1.5228 
2.5 2.15926 -0.313044 
2.5 0.146107 0.980331 
2.5 -1.40011 2.31796 
2.5 1.47702 0.409787 
2.5 -2.20153 2.36465 
2.5 -0.130848 0.178915 
2.5 -0.616398 1.48938 
2.5 -0.417264 2.15285 
2.5 -0.354091 2.42233 
2.5 2.12126 -1.43002 
2.5 -0.116504 0.826212 
2.5 -0.513855 1.91801 
2.5 2.01201 1.51791 
2.5 1.70988 -0.202261 
2.5 0.603885 2.22137 
2.5 0.0414288 0.341731 
2.5 -0.408261 0.558717 
2.5 -0.399563 0.577792 
2.5 0.693915 1.56003 
2.5 0.0591296 1.84919 
2.5 0.222709 1.60276 
2.5 1.56507 1.81928 
2.5 2.17727 -1.44559 
2.5 -0.143361 1.50876 
2.5 0.22927 0.29458 
2.5 -0.185629 2.12569 
2.5 -0.710547 2.28774 
2.5 2.43759 -1.54782 
2.5 1.1198 -0.711768 
2.5 1.31344 -0.365383 
2.5 0.570467 0.879467 
2.5 -0.834605 1.59543 
2.5 2.44934 -1.12789 
2.5 0.258263 0.298395 
2.5 1.07158 1.13048 
2.5 2.32727 2.17467 
2.5 1.05235 1.152 
2.5 1.04854 0.68247 
2.5 2.04772 0.169912 
2.5 1.42956 -0.60709 
2.5 0.767769 0.421232 
2.5 0.431913 1.96287 
2.5 1.95997 -0.04738 
2.5 -0.715125 1.65052 
2.5 -0.295953 1.00108 
2.5 1.52646 -0.560701 
2.5 0.893048 1.70972 
2.5 1.61374 2.31277 
2.5 -0.601138 1.12133 
2.5 1.59482 -1.07952 
2.5 1.58582 1.33099 
2.5 1.95921 2.2676 
2.5 0.382473 0.435118 
2.5 1.43277 0.0128942 
2.5 -1.00368 2.0851 
2.5 0.135426 1.0287 
2.5 1.35937 2.00224 
2.5 1.31527 1.12728 
2.5 -0.0632496 0.805765 
2.5 0.702002 -0.625401 
2.5 -0.951186 1.12575 
2.5 -1.32565 1.74955 
2.5 1.8553 0.205466 
2.5 -0.322962 1.94761 
2.5 1.86399 -0.107044 
2.5 2.21953 1.06838 
2.5 2.47238 -1.68149 
2.5 1.22219 0.247124 
2.5 1.74635 0.593203 
2.5 2.2145 1.13308 
2.5 0.840098 2.13073 
2.5 -0.0988035 2.32299 
2.5 -0.247429 1.01085 
2.5 -0.743049 1.86674 
2.5 0.849559 0.59885 
2.5 2.27233 1.29162 
2.5 0.390866 1.59284 
2.5 -0.020829 0.428098 
2.5 1.94777 0.0486007 
2.5 1.65784 -0.843303 
2.5 0.294427 0.507599 
2.5 -0.87962 2.00926 
2.5 2.37533 -0.921278 
2.5 1.56369 -0.0377667 
2.5 2.11379 -0.513398 
2.5 1.4349 0.563295 
2.5 1.14483 -0.514161 
2.5 -0.845897 2.00835 
2.5 0.991928 1.76954 
2.5 2.06847 -1.9641 
2.5 2.45254 0.912885 
2.5 0.516602 0.0366986 
2.5 1.98927 -1.61969 
2.5 -1.23424 1.38195 
2.5 2.3645 2.46094 
2.5 1.86415 0.502564 
2.5 1.22173 0.943709 
2.5 2.26012 1.40545 
2.5 -0.957594 2.00804 
2.5 -1.50616 2.29324 
2.5 1.89253 1.69416 
2.5 1.81486 1.21456 
2.5 -0.0572985 0.86787 
2.5 0.118488 0.571841 
2.5 0.0939206 1.16176 
2.5 -1.96532 2.07152 
2.5 1.51196 2.43118 
2.5 2.10662 -1.21456 
2.5 0.965224 0.855358 
2.5 -0.951949 1.12346 
2.5 0.861461 -0.554445 
2.5 0.435881 0.396817 
2.5 -1.85194 1.99019 
2.5 1.98378 -1.50174 
2.5 2.38433 2.11821 
2.5 1.58582 0.151143 
2.5 0.0719475 1.48679 
2.5 2.35687 2.2879 
2.5 -1.30398 1.38287 
2.5 0.955763 1.46924 
2.5 -0.513703 2.21007 
2.5 2.14385 -1.62381 
2.5 0.866039 1.21899 
2.5 2.20107 1.6023 
2.5 0.972701 1.1755 
2.5 -0.943098 1.7906 
2.5 1.75779 -1.21288 
2.5 -0.188376 2.03398 
2.5 0.658666 2.09304 
2.5 1.61069 1.92473 
2.5 -1.6908 2.35305 
2.5 0.5253 1.52127 
2.5 1.49731 2.03963 
2.5 0.353328 1.99049 
2.5 2.30499 0.35577 
2.5 0.765023 1.12514 
2.5 -0.857341 1.97523 
2.5 2.2879 1.26766 
2.5 -1.13124 1.45505 
2.5 0.433439 1.87193 
2.5 1.98927 2.03536 
2.5 -0.463958 2.47848 
2.5 -0.934553 0.948744 
2.5 1.8112 1.38058 
2.5 2.36404 2.43286 
2.5 1.36181 0.191732 
2.5 0.560701 0.791269 
2.5 0.141835 0.750069 
2.5 1.66318 0.229118 
2.5 2.20229 -1.73643 
2.5 -0.893353 1.33038 
2.5 0.416654 1.06731 
2.5 1.311 0.757088 
2.5 1.43292 1.60398 
2.5 2.21725 -1.63709 
2.5 1.53287 0.0835445 
2.5 0.360042 1.87132 
2.5 0.438627 0.589846 
2.5 0.835826 -0.415281 
2.5 2.44293 0.734504 
2.5 0.312128 0.908917 
2.5 1.50159 0.741524 
2.5 1.54569 1.63602 
2.5 -0.503784 1.47 
2.5 1.41171 -0.39819 
2.5 -2.39563 2.46536 
2.5 0.875957 2.06923 
2.5 -1.61618 2.25448 
2.5 -0.785775 2.10585 
2.5 1.51715 -0.712073 
2.5 1.04534 1.3847 
2.5 0.709174 1.24172 
2.5 -0.0160986 1.85438 
2.5 1.12362 -0.305872 
2.5 0.467772 0.515992 
2.5 1.89344 0.65775 
2.5 -0.0107577 2.13912 
2.5 0.426725 1.2141 
2.5 2.36343 -1.02 
2.5 -0.787912 1.17504 
2.5 -1.85224 1.98485 
2.5 2.49634 -0.438932 
2.5 2.17452 0.446867 
2.5 -0.92082 1.42071 
2.5 0.22866 1.13613 
2.5 1.72132 -0.387661 
2.5 1.07479 0.818735 
2.5 1.56079 2.44827 
2.5 0.270928 2.39074 
2.5 1.02351 0.338526 
2.5 -0.399564 2.24593 
2.5 -1.42102 2.29568 
2.5 0.31869 2.46002 
2.5 1.83653 1.5289 
2.5 0.317316 0.488525 
2.5 -1.10927 1.43292 
2.5 0.838725 2.48688 
2.5 2.41684 1.97111 
2.5 1.39508 0.0174718 
2.5 0.481811 0.268792 
2.5 1.09035 -0.862377 
2.5 -1.59986 2.10509 
2.5 2.13439 0.367519 
2.5 -0.260247 2.26394 
2.5 1.12331 2.14339 
2.5 2.11684 -1.06868 
2.5 2.238 2.01003 
2.5 1.84278 -0.841624 
2.5 1.33877 0.0730155 
2.5 1.48053 0.203635 
2.5 -0.268944 0.719398 
2.5 2.48032 2.34222 
2.5 -0.01442 0.502258 
2.5 2.36679 -0.877789 
2.5 -0.301904 1.22417 
2.5 1.51273 1.54584 
2.5 2.28057 -2.19588 
2.5 0.161977 0.96736 
2.5 1.68622 0.163656 
2.5 -1.36731 1.76313 
2.5 2.02177 -0.486541 
2.5 1.45596 -1.14116 
2.5 -1.2495 1.30444 
2.5 -0.085223 0.272301 
2.5 0.81492 -0.685675 
2.5 2.17345 1.77122 
2.5 2.17498 -0.688879 
2.5 2.00957 -1.03328 
2.5 2.23312 0.311365 
2.5 1.47671 0.647984 
2.5 1.55896 -0.57062 
2.5 0.710395 1.82691 
2.5 2.40112 0.322962 
2.5 -1.61969 2.19359 
2.5 -0.846202 1.11019 
2.5 0.0762199 0.403836 
2.5 0.667058 0.950881 
2.5 2.40265 2.42706 
2.5 -1.11812 1.87605 
2.5 1.6702 0.732368 
2.5 1.01588 2.11516 
2.5 0.792795 0.295038 
2.5 0.116809 1.21364 
2.5 2.4942 1.66761 
2.5 2.24898 1.9879 
2.5 2.00728 -0.589083 
2.5 1.98485 -0.776925 
2.5 1.84965 2.05504 
2.5 0.225913 0.770974 
2.5 -0.436644 2.08327 
2.5 2.29232 1.01009 
2.5 -0.0336467 0.508972 
2.5 1.1259 0.129322 
2.5 2.38113 1.4729 
2.5 0.813242 -0.309534 
2.5 0.718024 2.33474 
2.5 1.9377 1.54065 
2.5 1.72147 0.629673 
2.5 0.0972778 1.57193 
2.5 2.12691 0.437559 
2.5 -0.184255 2.29843 
2.5 -1.18038 1.23058 
2.5 1.66654 2.19207 
2.5 1.49594 0.687048 
2.5 -0.147328 1.78083 
2.5 1.47748 2.06313 
2.5 0.265587 1.76984 
2.5 0.136494 2.37045 
2.5 2.1466 2.10402 
2.5 -2.12218 2.36511 
2.5 1.16329 -0.0679801 
2.5 1.64747 -1.36792 
2.5 0.309229 2.47848 
2.5 -0.366909 2.1231 
2.5 2.09441 -0.250023 
2.5 2.08617 0.56711 
2.5 1.84614 0.272149 
2.5 -0.013657 0.142445 
2.5 1.676 1.38073 
2.5 1.79014 -1.74451 
2.5 0.00572217 1.54233 
2.5 1.03679 0.0241859 
2.5 0.569094 2.19573 
2.5 1.64228 0.751442 
2.5 0.910291 2.40692 
2.5 -0.557191 1.00307 
2.5 -0.011826 2.00362 
2.5 1.62351 0.287866 
2.5 -1.17656 1.70713 
2.5 -1.07875 1.21105 
2.5 0.476165 0.669347 
2.5 1.63251 2.3114 
2.5 1.07906 0.519806 
2.5 1.41202 1.65937 
2.5 -1.2315 1.83073 
2.5 0.55826 -0.461058 
2.5 1.0342 -1.00536 
2.5 2.28912 -1.72346 
2.5 -0.568789 0.904492 
2.5 -1.66181 2.37289 
2.5 1.92045 0.0981932 
2.5 -1.6876 2.1823 
2.5 0.781503 -0.472808 
2.5 2.08876 2.39837 
2.5 2.32177 2.46521 
2.5 0.729163 1.17748 
2.5 0.761513 1.88459 
2.5 0.911512 2.04344 
2.5 2.21206 -1.52188 
2.5 1.04625 -0.584811 
2.5 -0.231864 2.18932 
2.5 1.61069 -0.456023 
2.5 2.02818 0.942335 
2.5 -0.841777 1.61496 
2.5 0.807443 -0.0583668 
2.5 -0.275506 0.940962 
2.5 0.930128 -0.688269 
2.5 1.71384 2.22854 
2.5 0.474181 0.343562 
2.5 -0.424131 1.97157 
2.5 1.60916 -0.117878 
2.5 2.12859 -1.67798 
2.5 -1.52875 1.87529 
2.5 1.83912 1.82081 
2.5 1.56018 0.362789 
2.5 -0.594577 2.19115 
2.5 0.0841547 0.629215 
2.5 0.0664539 1.04259 
2.5 1.05083 0.407346 
2.5 2.10021 -1.31573 
2.5 1.93113 -1.54538 
2.5 -1.90031 2.11989 
2.5 2.10677 2.17635 
2.5 1.97554 0.357601 
2.5 -0.564669 1.51166 
2.5 0.053026 1.78755 
2.5 1.5463 0.763802 
2.5 0.9756 1.02824 
2.5 0.122761 0.597323 
2.5 1.33251 0.252617 
2.5 1.06471 -0.494476 
2.5 0.499664 2.21923 
2.5 -1.7671 2.34252 
2.5 1.09523 -0.0247965 
2.5 -0.545595 1.73551 
2.5 2.3204 1.44864 
2.5 -0.837962 1.56384 
2.5 -0.0147252 1.04488 
2.5 2.34252 0.842845 
2.5 0.444731 0.399411 
2.5 1.47076 -0.690253 
2.5 -0.0873592 1.95311 
2.5 -0.431608 1.36593 
2.5 1.10164 2.3442 
2.5 2.18612 0.991165 
2.5 1.92106 -1.63205 
2.5 -0.254753 0.951949 
2.5 0.905713 1.87864 
2.5 2.1588 -1.66211 
2.5 1.92122 -0.671026 
2.5 2.22152 0.543458 
2.5 0.335017 2.04436 
2.5 0.471282 0.0644703 
2.5 2.16094 -0.820566 
2.5 2.34939 -1.2495 
2.5 1.88688 -0.943403 
2.5 1.17565 0.765328 
2.5 0.514313 1.22143 
2.5 -0.000839233 1.264 
2.5 1.01695 1.87483 
2.5 1.67829 1.01726 
2.5 1.65082 1.37066 
2.5 2.16475 -0.532777 
2.5 -0.230644 2.15224 
2.5 -0.230796 0.248802 
2.5 0.706122 0.0595875 
2.5 0.897626 0.728706 
2.5 1.95723 -0.785012 
2.5 1.81837 1.33328 
2.5 -0.0574512 2.48047 
2.5 2.46689 1.23943 
2.5 -1.10515 1.81257 
2.5 2.17711 1.002 
2.5 2.11776 -0.958052 
2.5 -0.427335 1.96883 
2.5 -0.771584 1.47031 
2.5 2.42981 1.53287 
2.5 0.683691 1.91099 
2.5 0.488067 -0.246666 
2.5 -0.981857 2.27447 
2.5 2.45132 0.242698 
2.5 1.5492 1.09172 
2.5 1.40927 0.529572 
2.5 0.424589 2.04726 
2.5 1.46283 -1.1256 
2.5 0.973922 0.183798 
2.5 2.21007 -1.93709 
2.5 -0.434202 0.487152 
2.5 -0.647832 1.45413 
2.5 0.915479 0.928602 
2.5 0.321741 0.200125 
2.5 0.664312 1.99705 
2.5 -2.40982 2.44156 
2.5 2.12477 2.27309 
2.5 1.5762 -0.848949 
2.5 1.24905 2.2261 
2.5 0.775399 2.31262 
2.5 0.513245 0.681402 
2.5 -0.0287635 2.22869 
2.5 1.1552 1.61603 
2.5 1.10103 0.411771 
2.5 0.859172 0.823923 
2.5 -1.18114 2.25265 
2.5 1.94945 2.22976 
2.5 1.79228 0.019608 
2.5 2.126 1.43979 
2.5 1.73292 0.642033 
2.5 2.26058 1.18419 
2.5 1.24447 1.41034 
2.5 -0.0144199 0.323725 
2.5 -0.800272 2.22701 
2.5 1.84812 2.43149 
2.5 -1.86399 2.15438 
2.5 0.493103 -0.397732 
2.5 -1.27239 2.25539 
2.5 -0.601138 0.968581 
2.5 -0.86787 2.11303 
2.5 0.922193 -0.581149 
2.5 1.76344 1.35784 
2.5 1.84278 1.27865 
2.5 -1.60474 2.20504 
2.5 0.949965 1.90916 
2.5 0.14626 1.47473 
2.5 1.18755 -0.470366 
2.5 -0.960799 1.88795 
2.5 2.16216 1.76252 
2.5 0.212333 1.19869 
2.5 1.66684 -0.199972 
2.5 0.581912 0.198294 
2.5 1.47992 -0.226371 
2.5 -0.288781 1.95845 
2.5 2.24593 0.50531 
2.5 -0.665685 2.46155 
2.5 1.69111 1.08333 
2.5 -0.223319 1.264 
2.5 -0.63654 1.17428 
2.5 0.484405 1.53745 
2.5 0.436796 2.29492 
2.5 -0.514771 1.53485 
2.5 2.135 0.00389123 
2.5 1.81593 1.89604 
2.5 1.31695 2.03612 
2.5 2.30666 1.48312 
2.5 2.49863 1.09767 
2.5 0.971633 1.55454 
2.5 0.295953 0.632267 
2.5 -1.37906 1.57697 
2.5 1.60703 2.22976 
2.5 1.48984 0.485321 
2.5 1.1021 0.234458 
2.5 1.19076 0.868786 
2.5 0.805155 0.331812 
2.5 1.60581 2.16842 
2.5 1.40408 2.38098 
2.5 2.11089 1.37783 
2.5 1.14422 -0.107654 
2.5 2.45086 0.0696585 
2.5 0.629368 0.681707 
2.5 2.28698 1.16207 
2.5 0.416196 0.771127 
2.5 0.709479 -0.505921 
2.5 0.7284 0.946303 
2.5 0.462889 2.47467 
2.5 0.765938 0.908612 
2.5 1.15795 1.35525 
2.5 -1.67646 2.25738 
2.5 1.33206 0.0740836 
2.5 1.78159 1.46847 
2.5 -0.453734 0.930281 
2.5 0.607395 -0.0801873 
2.5 1.17855 1.72224 
2.5 -0.835673 1.87376 
2.5 2.17421 -1.42315 
2.5 -0.00938457 0.28573 
2.5 1.82096 2.00926 
2.5 0.916852 -0.739845 
2.5 1.89344 -1.48297 
2.5 2.49893 -2.453 
2.5 0.0240333 2.06236 
2.5 2.06893 0.840098 
2.5 0.785623 1.33099 
2.5 -0.0684378 1.83973 
2.5 -1.83454 2.3764 
2.5 0.654545 -0.609684 
2.5 2.28423 -2.00529 
2.5 0.73954 0.633183 
2.5 -1.14772 1.22799 
2.5 -0.0614184 1.86567 
2.5 0.749 -0.199515 
2.5 0.305719 -0.114673 
2.5 -0.437254 1.47732 
2.5 1.89329 1.13674 
2.5 -0.799661 1.16512 
2.5 1.27544 -0.141988 
2.5 -0.89259 2.33413 
2.5 1.92442 0.853679 
2.5 -1.94884 2.37655 
2.5 1.82218 -1.19564 
2.5 1.24554 0.131001 
2.5 0.151601 1.56537 
2.5 1.08348 -0.477691 
2.5 -0.431303 1.78907 
2.5 -0.122608 0.939589 
2.5 2.11821 1.17855 
2.5 2.14064 2.29202 
2.5 -1.39508 1.4758 
2.5 0.730384 0.299615 
2.5 0.300989 0.503327 
2.5 -1.59131 2.03475 
2.5 1.34915 -0.836131 
2.5 -1.6789 1.71873 
2.5 0.803781 -0.690253 
2.5 2.19558 2.23739 
2.5 0.828654 0.943403 
2.5 0.929365 -0.712378 
2.5 0.849559 2.46979 
2.5 1.26858 1.16558 
2.5 0.750374 0.687506 
2.5 1.99248 0.156636 
2.5 0.705817 0.438322 
2.5 -0.865276 2.00972 
2.5 1.52493 -1.35479 
2.5 2.10341 2.4913 
2.5 2.1585 0.994064 
2.5 -0.558718 2.09029 
2.5 2.16384 1.03038 
2.5 -0.164571 1.92671 
2.5 1.75932 0.899609 
2.5 0.978347 0.559938 
2.5 0.277795 0.982925 
2.5 1.70194 -0.224235 
2.5 0.791879 0.104907 
2.5 1.67325 1.16176 
2.5 2.29934 1.4349 
2.5 2.20946 -2.08846 
2.5 0.233696 0.197226 
2.5 2.00911 1.21197 
2.5 0.805918 1.13201 
2.5 2.02391 0.348292 
2.5 2.45422 -0.774331 
2.5 1.52356 0.472961 
2.5 -0.288629 0.947066 
2.5 2.38357 -2.05092 
2.5 2.16887 2.35153 
2.5 -0.895337 1.70743 
2.5 2.21099 1.75489 
2.5 0.762734 1.25835 
2.5 0.464721 1.3583 
2.5 -0.7519 1.33786 
2.5 2.22701 -1.43475 
2.5 2.21267 -1.45733 
2.5 2.4266 -1.03938 
2.5 -1.28048 1.6551 
2.5 -1.71079 2.35763 
2.5 -0.397122 0.552004 
2.5 -0.606479 2.45956 
2.5 0.983688 2.04466 
2.5 2.43667 1.48465 
2.5 -1.26064 1.94105 
2.5 2.23418 1.90855 
2.5 1.74467 -1.11614 
2.5 2.05855 -0.854442 
2.5 -0.560549 2.37777 
2.5 0.505615 1.17183 
2.5 0.474639 0.978042 
2.5 0.208975 -0.12154 
2.5 2.3027 -1.79273 
2.5 0.877331 2.13179 
2.5 0.705664 -0.200278 
2.5 1.42575 2.29644 
2.5 1.31039 1.35067 
2.5 0.454344 1.47961 
2.5 0.813089 2.19329 
2.5 1.04274 2.12508 
2.5 1.67569 1.18984 
2.5 1.82905 1.63419 
2.5 2.06053 2.08449 
2.5 2.4968 0.982772 
2.5 2.48062 -1.36685 
2.5 0.144124 0.52118 
2.5 2.13546 -0.344783 
2.5 -0.0353252 1.03832 
2.5 -0.895184 1.14406 
2.5 -1.37097 1.93281 
2.5 -0.760445 1.90672 
2.5 2.15545 -0.164418 
2.5 -0.0684378 0.0919371 
2.5 1.6316 0.473266 
2.5 1.62229 1.69614 
2.5 1.13674 0.742439 
2.5 1.99538 0.0379193 
2.5 -1.42483 1.96242 
2.5 1.10393 0.454039 
2.5 2.39822 -0.224845 
2.5 1.19671 -1.19442 
2.5 0.614872 -0.0875118 
2.5 1.72697 0.540864 
2.5 -0.749458 1.45245 
2.5 0.26574 2.3793 
2.5 0.778145 -0.0496688 
2.5 2.1559 0.0182347 
2.5 0.0318156 0.905103 
2.5 1.28445 0.803018 
2.5 1.80509 0.310907 
2.5 0.651952 -0.510498 
2.5 1.19961 0.573977 
2.5 2.25677 -0.14153 
2.5 1.84217 1.47183 
2.5 -0.86726 1.29894 
2.5 -0.104144 2.16384 
2.5 1.53806 0.0434127 
2.5 0.0441755 0.946608 
2.5 0.693762 0.437254 
2.5 2.24425 -1.87773 
2.5 1.32092 -1.0342 
2.5 1.19213 -0.892895 
2.5 -1.14879 1.95799 
2.5 0.29107 2.16323 
2.5 1.19579 -0.333033 
2.5 -0.371487 1.98958 
2.5 1.17412 0.643559 
2.5 2.30728 0.825297 
2.5 0.653477 -0.330134 
2.5 1.66822 1.2524 
2.5 1.84797 2.23617 
2.5 0.989639 1.26141 
2.5 -1.28826 2.42904 
2.5 1.49152 1.96409 
2.5 1.28292 -0.373623 
2.5 2.1144 -1.53119 
2.5 0.961562 0.359127 
2.5 1.43124 2.0584 
2.5 0.285272 1.33053 
2.5 0.510803 0.902356 
2.5 -0.0901058 1.51456 
2.5 -0.388424 2.27279 
2.5 0.0438702 2.44125 
2.5 1.44116 2.079 
2.5 -0.294122 0.849254 
2.5 1.13521 0.524079 
2.5 2.491 0.730079 
2.5 1.5492 0.975906 
2.5 2.05473 0.152821 
2.5 2.0204 1.06243 
2.5 1.7758 2.16613 
2.5 -0.8932 1.26995 
2.5 1.49747 0.826365 
2.5 -1.00719 1.92778 
2.5 1.0197 2.47833 
2.5 0.135578 2.07549 
2.5 -0.322352 0.917463 
2.5 -1.0081 1.78663 
2.5 -1.07585 1.33862 
2.5 -0.00907922 1.25469 
2.5 0.848491 1.26156 
2.5 -0.474944 2.20183 
2.5 2.1878 2.37594 
2.5 1.30398 1.7967 
2.5 1.27697 0.883282 
2.5 2.46902 -0.376065 
2.5 1.6586 2.16552 
2.5 2.09716 1.03908 
2.5 0.746254 0.421537 
2.5 2.31201 2.30789 
2.5 0.979568 -0.699103 
2.5 0.343257 0.361415 
2.5 0.80134 0.50882 
2.5 1.97966 1.41751 
2.5 1.03969 -0.42642 
2.5 2.42202 1.81211 
2.5 -1.45032 2.24364 
2.5 -0.742134 2.38815 
2.5 2.10768 -1.74055 
2.5 -0.954695 1.24432 
2.5 0.168691 0.424436 
2.5 2.07183 -1.79624 
2.5 1.97279 1.50403 
2.5 -0.330439 1.74207 
2.5 2.27096 -1.95585 
2.5 0.761513 2.25982 
2.5 1.05235 1.8112 
2.5 1.95677 1.79655 
2.5 -0.865886 0.912885 
2.5 -0.883892 2.06191 
2.5 1.1784 0.164724 
2.5 1.76893 0.948134 
2.5 1.19335 1.61954 
2.5 0.373165 1.4494 
2.5 1.32076 0.280236 
2.5 2.37274 1.1288 
2.5 -2.03154 2.23815 
2.5 2.03764 1.61069 
2.5 2.10173 2.2647 
2.5 1.50906 -0.154347 
2.5 -0.00541704 0.0310526 
2.5 -0.348598 1.31359 
2.5 -2.28622 2.41272 
2.5 0.138936 0.551546 
2.5 -1.16192 1.76115 
2.5 2.0146 -0.702155 
2.5 0.689947 1.91221 
2.5 -0.20043 2.14614 
2.5 -1.86308 2.19359 
2.5 1.95845 2.2821 
2.5 0.106738 1.123 
2.5 -1.03389 1.26034 
2.5 -0.629215 1.30734 
2.5 -0.377438 1.57605 
2.5 1.59635 -1.57392 
2.5 0.62128 1.44024 
2.5 1.27834 -0.562532 
2.5 -0.229118 0.531709 
2.5 1.4935 0.538728 
2.5 1.99583 1.58399 
2.5 0.248192 1.92061 
2.5 0.604038 2.48764 
2.5 2.48749 -0.602817 
2.5 -1.07051 1.26141 
2.5 0.301294 0.0505843 
2.5 -0.546815 1.53943 
2.5 -0.302667 1.36685 
2.5 -0.958968 2.02635 
2.5 1.81318 2.33779 
2.5 1.38409 -1.08257 
2.5 -1.76328 2.48367 
2.5 -0.911817 2.21129 
2.5 1.92045 1.03771 
2.5 -0.320521 2.19131 
2.5 0.991165 1.04228 
2.5 -0.603732 0.829417 
2.5 2.18841 1.23653 
2.5 2.17833 0.0330362 
2.5 -1.04579 2.01765 
2.5 -1.76725 1.93327 
2.5 -0.169302 0.442747 
2.5 0.234764 0.475555 
2.5 -1.02321 2.3291 
2.5 2.10631 -1.81486 
2.5 0.210196 0.385067 
2.5 -1.0403 1.32931 
2.5 1.12789 -2.34542 
2.5 -2.14278 0.312738 
2.5 -0.0188451 -1.15642 
2.5 -0.955763 -1.12545 
2.5 1.14681 -1.7291 
2.5 -0.539796 -1.11034 
2.5 -0.474944 -1.68668 
2.5 -2.06114 -0.774483 
2.5 -1.28628 -2.40219 
2.5 -2.38815 -2.44827 
2.5 -2.3529 -1.78587 
2.5 -1.10668 -1.48526 
2.5 -2.31262 0.266961 
2.5 -0.430692 -0.37225 
2.5 -2.37426 1.11599 
2.5 -0.600223 0.074389 
2.5 -0.285577 -1.52493 
2.5 0.288781 -1.68226 
2.5 -2.33001 -1.65998 
2.5 -1.68287 -1.37295 
2.5 0.112537 -1.88582 
2.5 -1.45138 -0.718787 
2.5 -1.76969 -1.15963 
2.5 0.0160985 -2.49329 
2.5 -0.46701 -0.84254 
2.5 -0.754952 -0.0231178 
2.5 0.651036 -0.759377 
2.5 -1.52799 0.857646 
2.5 0.402158 -0.673315 
2.5 1.10897 -2.40997 
2.5 -1.86964 -0.663854 
2.5 0.221336 -2.20519 
2.5 -0.658208 -0.919599 
2.5 -1.96425 -2.2351 
2.5 0.434049 -0.458006 
2.5 -0.842234 -2.18139 
2.5 -2.34619 -1.81455 
2.5 -2.12111 -0.893048 
2.5 -1.89634 -0.549104 
2.5 -0.728248 -2.00041 
2.5 -1.3435 -0.473571 
2.5 -1.41522 -1.71827 
2.5 -2.38159 0.739845 
2.5 -0.600223 -1.79701 
2.5 -1.16787 -0.353023 
2.5 -1.78877 1.53104 
2.5 -2.38983 -1.50555 
2.5 -2.4765 2.01796 
2.5 -0.530488 -0.586032 
2.5 0.197684 -0.933943 
2.5 -1.86659 -0.649663 
2.5 0.253075 -2.27584 
2.5 -1.52478 -1.47229 
2.5 -0.984451 -0.152364 
2.5 -2.38418 -1.78236 
2.5 -0.0563829 -0.824991 
2.5 -2.49512 2.0761 
2.5 -0.00648522 -1.11095 
2.5 -0.226066 -1.02107 
2.5 -1.75855 0.0708792 
2.5 0.841777 -0.980331 
2.5 -1.80052 -0.903119 
2.5 -1.78755 -1.23119 
2.5 -2.45071 -2.01674 
2.5 -2.21313 -0.982009 
2.5 0.342189 -2.02818 
2.5 -0.925398 -0.928754 
2.5 -1.86628 -2.12752 
2.5 -2.23144 -2.28774 
2.5 -1.3493 0.174184 
2.5 -1.71216 -2.4443 
2.5 -2.00163 0.11269 
2.5 -1.461 -1.2521 
2.5 -1.96364 -2.38693 
2.5 -1.8144 -1.3374 
2.5 -0.165944 -2.08724 
2.5 -0.890606 -2.28027 
2.5 -1.96776 0.352718 
2.5 -1.49716 -2.06038 
2.5 1.06456 -2.01613 
2.5 -2.34405 -1.85377 
2.5 -0.970412 0.967818 
2.5 -1.74741 -0.127949 
2.5 -0.408566 -1.79838 
2.5 -1.23287 0.824686 
2.5 -1.8231 1.42758 
2.5 -2.05412 0.997421 
2.5 0.164266 -0.931806 
2.5 0.688726 -1.85224 
2.5 -1.8939 1.57361 
2.5 -1.2347 -2.06725 
2.5 0.88023 -2.46918 
2.5 0.225913 -1.23775 
2.5 -0.843455 0.463195 
2.5 -1.00856 0.730384 
2.5 1.08821 -1.38028 
2.5 -2.29049 -1.66044 
2.5 -0.2163 -1.60428 
2.5 0.514618 -2.38144 
2.5 -0.932264 0.306024 
2.5 -0.446867 -0.462126 
2.5 -1.7024 -1.09966 
2.5 -0.740455 0.513093 
2.5 0.0270853 -0.0406661 
2.5 -0.187613 -0.711158 
2.5 -1.08898 -0.720924 
2.5 -2.26882 1.63129 
2.5 0.315332 -0.618076 
2.5 -1.63083 -1.62702 
2.5 -1.48328 -2.24441 
2.5 -1.67905 1.44818 
2.5 -1.69752 -0.723823 
2.5 -2.13668 -1.59558 
2.5 -2.16033 -0.625706 
2.5 0.466399 -0.870159 
2.5 -1.98637 -1.28964 
2.5 -2.49664 1.01711 
2.5 -1.96516 -0.646916 
2.5 0.257652 -1.51028 
2.5 -2.46597 0.883282 
2.5 -0.623875 0.53705 
2.5 0.239799 -2.04649 
2.5 -0.704901 -0.0115207 
2.5 0.52652 -1.50296 
2.5 1.13094 -2.49649 
2.5 -0.55002 0.311518 
2.5 -2.12432 1.60092 
2.5 -1.52554 0.158315 
2.5 -0.377132 -0.583895 
2.5 2.02574 -2.16018 
2.5 -2.28851 2.10906 
2.5 -2.44461 1.38867 
2.5 -2.3384 -0.865276 
2.5 -2.19054 -0.759987 
2.5 1.75138 -2.16536 
2.5 1.23409 -1.93403 
2.5 -2.07167 0.865886 
2.5 -2.02528 0.759072 
2.5 -0.287713 -1.24554 
2.5 -1.73505 -1.27636 
2.5 -2.38235 0.954848 
2.5 -0.787606 0.342341 
2.5 -1.95189 -0.292139 
2.5 1.59192 -1.8469 
2.5 0.145955 -0.559481 
2.5 -0.883435 -2.11547 
2.5 0.914258 -1.49228 
2.5 0.592135 -1.78098 
2.5 1.12224 -1.87651 
2.5 -1.90886 -1.04381 
2.5 -2.48764 -1.76847 
2.5 1.61924 -2.13393 
2.5 -0.376827 0.181204 
2.5 0.907392 -1.79411 
2.5 0.533235 -0.967208 
2.5 -1.55072 -1.9676 
2.5 -2.14888 2.00743 
2.5 -0.854137 -1.99675 
2.5 -2.32818 1.52371 
2.5 -0.107044 -0.223014 
2.5 1.75901 -2.44995 
2.5 1.28994 -1.38516 
2.5 -2.29781 -0.890606 
2.5 -1.69263 -2.38983 
2.5 -1.73719 0.269555 
2.5 1.4346 -1.63892 
2.5 -1.00444 -0.967666 
2.5 -0.123371 -0.431303 
2.5 -1.41247 -0.339442 
2.5 -1.66333 -1.09569 
2.5 0.162282 -1.32046 
2.5 -2.40387 1.54279 
2.5 -0.149464 -2.35046 
2.5 1.53211 -1.97691 
2.5 2.00255 -2.26592 
2.5 -2.27004 1.99751 
2.5 -0.171133 -1.18877 
2.5 -0.611209 -2.35656 
2.5 0.0998716 -2.35244 
2.5 -1.06304 -0.21981 
2.5 0.512024 -1.78129 
2.5 -0.347835 -0.568789 
2.5 -1.83607 -1.21654 
2.5 0.217368 -2.21007 
2.5 -0.523621 -2.16506 
2.5 -0.149617 -0.361721 
2.5 -0.850627 -1.04717 
2.5 -2.14095 1.09478 
2.5 -2.43606 -2.11898 
2.5 -2.44171 -0.806223 
2.5 -1.75413 0.200278 
2.5 -1.87345 0.620518 
2.5 -1.25225 -0.636998 
2.5 -0.708869 -1.94746 
2.5 0.711005 -1.36334 
2.5 -2.07488 0.420774 
2.5 -1.96532 -1.32412 
2.5 0.92082 -1.56858 
2.5 -1.72483 1.38272 
2.5 -2.49268 -0.154195 
2.5 1.49136 -2.45514 
2.5 -1.08837 -0.667058 
2.5 -2.31262 -2.05733 
2.5 1.04793 -1.10302 
2.5 -0.0218968 -0.115589 
2.5 -2.31918 0.631199 
2.5 1.41949 -2.0352 
2.5 1.30383 -1.8199 
2.5 -1.48923 -2.35855 
2.5 -0.634098 -0.583133 
2.5 -2.29568 1.84706 
2.5 -1.55362 1.47717 
2.5 0.938368 -2.37655 
2.5 -0.693304 -0.47647 
2.5 -1.25393 0.433134 
2.5 -1.61435 0.956526 
2.5 -0.859325 -0.549867 
2.5 0.198599 -1.97127 
2.5 -0.686285 -1.36502 
2.5 1.22631 -2.29644 
2.5 0.387051 -2.34436 
2.5 0.185629 -0.465178 
2.5 1.02016 -2.19131 
2.5 -1.54141 0.833232 
2.5 -1.86201 -1.84431 
2.5 -0.961562 0.766243 
2.5 -2.23022 -1.16375 
2.5 -1.79807 0.773873 
2.5 0.584353 -2.39624 
2.5 -0.516297 -1.61893 
2.5 -1.8289 1.10225 
2.5 -1.82646 0.428404 
2.5 -1.53439 -0.0318156 
2.5 -1.15596 0.487457 
2.5 -0.341578 -2.23449 
2.5 -1.63099 0.820109 
2.5 -1.38241 0.880077 
2.5 -2.04939 -1.53836 
2.5 0.70658 -1.45749 
2.5 -2.16018 1.95921 
2.5 -1.03618 -0.400632 
2.5 0.00389099 -0.35699 
2.5 -0.206229 0.112384 
2.5 -2.28225 -0.641423 
2.5 -2.34024 1.67142 
2.5 -1.96989 -1.15169 
2.5 -1.26019 1.13094 
2.5 -0.727485 0.261009 
2.5 -1.80403 0.37637 
2.5 0.322657 -1.49121 
2.5 -2.30392 1.96608 
2.5 -1.47824 -2.12142 
2.5 -1.96837 1.5585 
2.5 -1.45947 -1.60031 
2.5 -0.70658 0.540101 
2.5 -1.32763 -1.4404 
2.5 0.0212865 -2.22884 
2.5 -0.0927 -2.04863 
2.5 -2.16643 2.07183 
2.5 1.45779 -2.39959 
2.5 -1.24126 -2.31765 
2.5 -1.96898 -0.0919371 
2.5 0.932722 -0.997879 
2.5 -1.48831 0.996048 
2.5 1.16314 -2.3793 
2.5 -2.33139 -0.678655 
2.5 -2.38021 2.19115 
2.5 -1.66089 -0.207755 
2.5 0.081408 -2.33779 
2.5 -2.30346 0.616703 
2.5 -0.751595 -0.737404 
2.5 -0.805612 -1.94075 
2.5 -2.17086 -2.13698 
2.5 -2.00758 0.528657 
2.5 -0.962935 -2.2853 
2.5 -2.28988 -1.04289 
2.5 0.304804 -2.17727 
2.5 -2.16079 0.785775 
2.5 -0.104297 -0.486389 
2.5 -2.41546 2.24349 
2.5 -1.58979 -0.634861 
2.5 -2.09181 -2.37869 
2.5 -1.53348 -2.16735 
2.5 -2.21633 -1.63907 
2.5 -0.0568407 -0.69895 
2.5 -1.13582 -0.420774 
2.5 -0.791879 -2.36694 
2.5 0.949202 -1.94456 
2.5 -1.81837 0.116657 
2.5 0.485931 -2.19314 
2.5 -2.35778 -0.705969 
2.5 0.850322 -0.971328 
2.5 -1.3728 0.134205 
2.5 0.473113 -1.01802 
2.5 -2.35443 -2.18352 
2.5 2.40158 -2.46292 
2.5 -0.568789 0.227897 
2.5 1.12651 -1.87345 
2.5 0.883282 -1.72056 
2.5 -2.23739 1.70591 
2.5 0.883282 -2.44507 
2.5 -1.75459 -1.21609 
2.5 1.05327 -1.2878 
2.5 0.70719 -0.76487 
2.5 -1.09447 -1.76649 
2.5 -2.47909 -0.719245 
2.5 -1.49319 -1.49716 
2.5 -2.1849 1.45077 
2.5 -1.05632 0.0313578 
2.5 -1.08318 -1.24264 
2.5 -2.32971 0.354244 
2.5 -1.79914 -1.57437 
2.5 -0.926008 0.433134 
2.5 1.85911 -1.90916 
2.5 -1.7053 0.121845 
2.5 -2.28057 0.995438 
2.5 -0.424589 0.0582139 
2.5 -1.58795 0.585726 
2.5 -0.592898 -1.67447 
2.5 -2.37747 0.867718 
2.5 -1.29406 -0.579928 
2.5 -1.86338 -1.49243 
2.5 -0.297174 -2.10234 
2.5 -0.469756 -0.60831 
2.5 -0.171743 -1.46649 
2.5 0.0617235 -1.56537 
2.5 0.361568 -1.06975 
2.5 -2.02589 -0.43466 
2.5 -0.425352 -1.0371 
2.5 0.281915 -2.14019 
2.5 -0.43115 -2.25921 
2.5 -1.15688 -1.19396 
2.5 0.0368512 -2.1176 
2.5 0.181051 -1.95814 
2.5 -0.185019 -1.93205 
2.5 -2.16842 -0.720771 
2.5 1.5083 -1.51135 
2.5 0.278863 -1.89344 
2.5 -2.2206 1.09859 
2.5 -0.70368 -0.634556 
2.5 -0.132069 -1.1195 
2.5 0.295495 -0.398953 
2.5 0.101855 -0.62067 
2.5 -1.2878 0.838267 
2.5 -2.33337 -1.96715 
2.5 -1.29376 -2.08464 
2.5 1.35083 -2.28011 
2.5 -1.18511 0.00526452 
2.5 -1.37143 0.537202 
2.5 -2.3114 1.99889 
2.5 -1.03282 -1.85591 
2.5 -1.06471 -1.73261 
2.5 -1.80967 -0.860546 
2.5 -0.799203 0.239952 
2.5 -1.89329 -1.37555 
2.5 -1.48663 -2.21877 
2.5 0.499359 -1.45459 
2.5 -2.45117 1.09828 
2.5 -1.72163 0.269097 
2.5 -0.885571 -0.516602 
2.5 -1.09371 0.96675 
2.5 -1.30062 -0.521485 
2.5 -1.89634 -1.63846 
2.5 -0.564364 -1.19121 
2.5 0.944319 -0.969039 
2.5 -1.04045 -1.05724 
2.5 -1.85896 0.59183 
2.5 -0.645848 -1.4285 
2.5 0.386593 -1.50235 
2.5 0.455718 -0.786996 
2.5 -0.601291 -1.38195 
2.5 -0.301294 -2.36389 
2.5 -2.18917 1.70438 
2.5 -2.20443 -1.04228 
2.5 0.207449 -0.422605 
2.5 1.16634 -1.86018 
2.5 -1.94349 1.81364 
2.5 0.210349 -2.18307 
2.5 -0.69544 -0.486236 
2.5 -1.09935 -0.370724 
2.5 -2.36679 -0.562227 
2.5 -1.8115 -1.59207 
2.5 2.27218 -2.46246 
2.5 -1.50754 -2.49451 
2.5 -0.320521 -2.34252 
2.5 1.0873 -1.27194 
2.5 -0.25811 -2.3648 
2.5 -1.12362 -1.2405 
2.5 -2.28317 -2.47162 
2.5 -1.18679 0.1957 
2.5 -0.702307 -0.0733207 
2.5 0.769295 -1.68561 
2.5 -1.68592 0.888928 
2.5 -2.44369 1.06105 
2.5 -1.51898 0.19982 
2.5 -2.2058 0.782418 
2.5 -1.95387 0.861461 
2.5 1.96745 -1.99934 
2.5 -1.13933 0.454955 
2.5 -0.116352 -0.0388348 
2.5 -0.888928 0.00709558 
2.5 -0.259331 -0.192648 
2.5 -0.163503 -2.21084 
2.5 -1.54645 0.408567 
2.5 -2.48154 2.2029 
2.5 -0.918226 -1.01955 
2.5 -1.49487 -1.06349 
2.5 0.497223 -1.5849 
2.5 -0.980788 -2.04039 
2.5 0.923261 -1.25484 
2.5 -1.32611 0.609989 
2.5 -2.10204 -2.07244 
2.5 -1.44696 -0.0421917 
2.5 1.17107 -1.61222 
2.5 -0.634709 0.616398 
2.5 -0.377438 0.0420392 
2.5 -2.35519 2.33032 
2.5 0.416654 -2.24975 
2.5 -1.65754 -1.49808 
2.5 -0.345546 -0.187307 
2.5 -0.314112 -0.158772 
2.5 -1.72712 -2.38556 
2.5 -0.928907 0.446409 
2.5 -0.76899 0.566805 
2.5 -1.9377 -0.0214392 
2.5 -0.078814 -2.19878 
2.5 1.35662 -1.38699 
2.5 -0.198294 -2.20733 
2.5 0.244529 -0.284051 
2.5 0.581301 -0.702155 
2.5 1.41675 -1.80998 
2.5 -0.28985 -0.534608 
2.5 1.20235 -1.79807 
2.5 -2.3236 -2.09609 
2.5 -0.828806 -1.55148 
2.5 -0.493561 -1.46252 
2.5 -0.0327311 -0.472045 
2.5 -2.15209 0.662938 
2.5 -1.9879 0.445189 
2.5 -1.56369 0.721229 
2.5 -0.0214391 -1.47794 
2.5 -1.75321 -1.67402 
2.5 0.915021 -1.23577 
2.5 -1.85224 -0.0910215 
2.5 -2.45163 1.4523 
2.5 -1.11446 -0.477233 
2.5 1.60398 -1.85743 
2.5 -1.67188 -1.19732 
2.5 -0.212638 -2.40295 
2.5 0.750832 -1.09844 
2.5 -2.19146 -2.4237 
2.5 -1.44345 -2.21007 
2.5 -1.7674 -1.90962 
2.5 -2.42187 -1.67386 
2.5 -1.09584 -1.3377 
2.5 -2.4765 0.521485 
2.5 0.335627 -1.75153 
2.5 -2.33062 0.215079 
2.5 -1.82951 0.537049 
2.5 -0.426877 -0.564516 
2.5 -2.05855 0.0251015 
2.5 1.32183 -1.91618 
2.5 -0.919141 -0.211875 
2.5 0.39407 -0.936384 
2.5 -0.411618 0.28634 
2.5 -0.106281 -1.71339 
2.5 -2.17055 -0.041734 
2.5 -0.305261 -0.520722 
2.5 -1.14696 0.803934 
2.5 -2.49573 -0.303888 
2.5 0.753883 -2.09151 
2.5 -2.30941 -0.672857 
2.5 -2.14156 0.551393 
2.5 -0.504395 0.0165564 
2.5 -1.75153 1.06273 
2.5 -2.12096 -0.593051 
2.5 -1.82569 -1.15657 
2.5 1.45932 -1.6052 
2.5 -2.15453 0.877789 
2.5 -0.642949 -2.17269 
2.5 -0.572603 -0.861614 
2.5 -2.14583 -0.566653 
2.5 -0.349666 -1.76679 
2.5 -2.33871 -2.22152 
2.5 -1.82295 -0.159536 
2.5 -0.977126 0.501038 
2.5 -1.45627 -1.76405 
2.5 -0.0165563 -0.943861 
2.5 0.0534835 -1.65708 
2.5 -1.2199 -1.05571 
2.5 0.857189 -1.26232 
2.5 -0.240562 -1.66578 
2.5 -1.55881 -2.38968 
2.5 -2.36496 -0.062029 
2.5 1.73933 -2.39929 
2.5 0.634861 -1.81104 
2.5 -0.470519 -0.459075 
2.5 -1.64045 -0.586032 
2.5 1.15642 -1.60306 
2.5 -0.196005 -0.127491 
2.5 -0.168691 -0.1339 
2.5 -1.86338 -0.274896 
2.5 -0.224845 -1.86369 
2.5 -0.725654 0.164876 
2.5 -2.08281 -1.09844 
2.5 0.515992 -2.27401 
2.5 -0.995437 -1.3815 
2.5 -0.21218 -0.00038147 
2.5 1.93937 -2.39151 
2.5 -1.51883 -1.58628 
2.5 -0.552614 -0.416349 
2.5 0.10506 -1.78724 
2.5 -1.22677 1.00734 
2.5 -2.16674 0.947981 
2.5 -1.13796 -0.831858 
2.5 -2.06389 1.11644 
2.5 -0.213858 -1.0165 
2.5 0.21752 -1.69904 
2.5 -0.682623 -1.62931 
2.5 -0.118335 -1.22875 
2.5 -1.76511 0.144429 
2.5 -0.524995 -0.655919 
2.5 -1.1404 -2.17666 
2.5 1.97539 -2.00316 
2.5 0.109638 -0.865276 
2.5 -1.32916 -2.44461 
2.5 -0.500885 -0.10979 
2.5 -1.3992 -1.19716 
2.5 -2.45041 -2.08007 
2.5 0.746711 -1.20113 
2.5 -2.41836 1.75352 
2.5 -1.02428 -1.12774 
2.5 -1.35617 1.26705 
2.5 -0.452666 -0.908155 
2.5 1.46573 -2.2496 
2.5 1.01024 -1.09142 
2.5 0.424894 -2.21435 
2.5 0.526673 -1.44482 
2.5 -0.98674 -2.45499 
2.5 -1.38073 -1.85209 
2.5 0.555971 -2.27248 
2.5 -0.808664 0.679113 
2.5 -0.267266 -0.0217445 
2.5 -1.99751 -0.0675222 
2.5 -2.36389 -1.14025 
2.5 -1.62732 -2.46551 
2.5 -1.27377 -2.26409 
2.5 -1.33175 -0.163961 
2.5 0.198752 -0.906628 
2.5 0.45236 -1.89985 
2.5 0.72016 -2.00621 
2.5 -1.26324 0.770821 
2.5 1.35586 -2.33734 
2.5 1.68119 -2.37091 
2.5 -1.24294 -1.89344 
2.5 1.64624 -2.03261 
2.5 0.107959 -2.41607 
2.5 1.13704 -1.48129 
2.5 -0.0319681 -0.0821712 
2.5 -1.15398 -2.44354 
2.5 -2.02727 -1.86781 
2.5 -1.92183 -2.33932 
2.5 -1.25912 0.248344 
2.5 -2.13591 -2.29049 
2.5 -0.683996 -1.52051 
2.5 0.265893 -2.4646 
2.5 0.986434 -2.26058 
2.5 -1.38638 0.347377 
2.5 0.240562 -0.94966 
2.5 -2.43789 -2.31719 
2.5 -1.60489 1.04488 
2.5 -1.41385 0.0576036 
2.5 -2.06069 1.33816 
2.5 -2.10387 -2.25494 
2.5 1.66227 -2.04588 
2.5 -0.896405 0.881603 
2.5 -1.39279 0.438169 
2.5 -1.676 0.620212 
2.5 -1.37051 -1.30825 
2.5 -1.87941 0.634403 
2.5 -0.94676 -1.2553 
2.5 -0.715583 -2.46368 
2.5 -1.39691 -0.145192 
2.5 -0.71955 -1.03572 
2.5 -1.36471 -0.338832 
2.5 -1.376 1.01772 
2.5 -0.969191 -0.974227 
2.5 -2.32604 -2.07747 
2.5 -0.567415 -0.0615711 
2.5 -0.935774 -2.24212 
2.5 -1.74665 0.945387 
2.5 -0.866039 -1.28338 
2.5 -2.39578 1.50189 
2.5 -1.33526 -1.20724 
2.5 -0.57062 -0.982162 
2.5 -0.376369 -2.38556 
2.5 -2.0999 -0.179067 
2.5 -0.805002 -0.488372 
2.5 -0.695746 -0.180441 
2.5 -2.19588 -0.173116 
2.5 -0.440306 -0.64478 
2.5 -2.46796 2.0172 
2.5 -2.3909 -1.03725 
2.5 -2.15896 -0.748237 
2.5 -1.85316 1.73597 
2.5 0.383236 -2.10387 
2.5 -2.48993 0.857799 
2.5 -1.70682 1.20128 
2.5 -1.5907 -0.427488 
2.5 0.251701 -0.496917 
2.5 0.525605 -1.08745 
2.5 -1.39904 1.20342 
2.5 -1.51151 1.51151 
2.5 2.03093 -2.16048 
2.5 -0.420164 -0.663091 
2.5 -2.34252 0.203635 
2.5 -1.89955 -1.58902 
2.5 -2.21099 -0.134968 
2.5 -1.58414 -2.18673 
2.5 1.21548 -1.85331 
2.5 -1.99858 -1.10759 
2.5 2.1025 -2.30331 
2.5 -1.96272 -1.23455 
2.5 0.997879 -2.07228 
2.5 -0.482116 -1.02123 
2.5 -1.68332 -0.0119786 
2.5 -1.94197 1.80113 
2.5 -0.0913267 -0.182424 
2.5 -0.596255 0.0936154 
2.5 -0.928449 0.0998719 
2.5 0.562838 -1.97844 
2.5 1.28048 -1.42483 
2.5 -1.60047 -0.518433 
2.5 -0.623722 -1.11187 
2.5 0.35638 -1.31939 
2.5 -0.691626 0.239341 
2.5 -2.43896 -1.66974 
2.5 -1.65632 0.815226 
2.5 -0.89259 -0.651646 
2.5 -2.41028 1.96486 
2.5 -1.53806 -0.526826 
2.5 -2.2058 -2.45865 
2.5 0.14687 -2.08831 
2.5 -1.76237 -0.920515 
2.5 -1.85682 0.967666 
2.5 -1.94334 -1.84202 
2.5 -1.00169 -0.0800349 
2.5 -2.27599 1.11644 
2.5 0.474639 -1.10439 
2.5 -1.8881 -1.78617 
2.5 -1.5173 -0.00999486 
2.5 -2.24273 0.185629 
2.5 -1.42422 -1.39966 
2.5 -1.48617 -1.03526 
2.5 -1.20327 0.952864 
2.5 -1.52905 0.8343 
2.5 -0.638371 -0.374386 
2.5 0.344935 -0.960799 
2.5 1.07326 -2.07137 
2.5 -1.87315 -0.549257 
2.5 -1.80616 -1.26461 
2.5 0.432066 -1.70118 
2.5 -1.9026 -2.20504 
2.5 -1.01817 -2.03551 
2.5 -1.79716 -1.6203 
2.5 -0.972701 -1.94121 
2.5 0.676519 -0.777535 
2.5 -2.49481 -1.44971 
2.5 -2.1733 1.36044 
2.5 1.05022 -2.29705 
2.5 0.372707 -0.666753 
2.5 -2.03627 1.47702 
2.5 -0.90022 -2.43576 
2.5 -2.24288 1.79777 
2.5 -1.68928 -0.669195 
2.5 -2.30636 1.72468 
2.5 -0.156026 -0.687811 
2.5 0.226066 -2.37548 
2.5 1.1053 -1.88673 
2.5 -0.955916 -0.601291 
2.5 -1.18694 -2.03001 
2.5 -1.02824 -0.107196 
2.5 -1.80708 -1.04839 
2.5 1.42102 -1.51975 
2.5 -2.34893 0.0916318 
2.5 -1.54691 -0.128254 
2.5 -1.41766 -2.35488 
2.5 -1.91359 -1.91939 
2.5 -0.444426 -1.51364 
2.5 0.559633 -1.26064 
2.5 -0.881603 -1.65677 
2.5 -1.17168 -1.04015 
2.5 0.78135 -2.25951 
2.5 -0.704138 0.624943 
2.5 -0.282067 -1.51273 
2.5 -1.85804 1.4465 
2.5 -1.60657 -1.89955 
2.5 -2.44278 1.31466 
2.5 -1.89985 -1.70103 
2.5 -1.7204 -0.700629 
2.5 2.08617 -2.17879 
2.5 -1.19182 -0.0322733 
2.5 -2.35733 -0.140614 
2.5 -2.17101 1.61878 
2.5 -0.371486 -2.1469 
2.5 0.962783 -1.19259 
2.5 -0.892285 -0.451598 
2.5 1.37326 -2.13103 
2.5 -0.834605 -0.753731 
2.5 1.22539 -2.27218 
2.5 -1.00871 -0.7313 
2.5 -1.3702 -1.14345 
2.5 -1.6377 1.44177 
2.5 -0.473418 0.412076 
2.5 -1.13674 1.02443 
2.5 -2.45972 0.370266 
2.5 0.210807 -1.74284 
2.5 -0.078814 -0.269097 
2.5 -0.792337 0.289849 
2.5 -1.12255 0.31167 
2.5 -2.43133 -0.884808 
2.5 -2.27142 -1.8817 
2.5 -0.872448 0.420621 
2.5 0.958357 -2.47925 
2.5 1.74741 -2.00423 
2.5 -2.24273 2.2029 
2.5 -1.59894 -1.18664 
2.5 0.897321 -2.1263 
2.5 -0.895337 -0.69422 
2.5 -1.47198 -0.663701 
2.5 0.143819 -2.23006 
2.5 0.575808 -1.71003 
2.5 -0.586032 -0.609684 
2.5 2.20809 -2.24471 
2.5 0.224845 -1.68806 
2.5 0.251549 -0.603732 
2.5 0.174184 -1.52188 
2.5 -1.1166 -1.21944 
2.5 1.14254 -1.91237 
2.5 -1.18068 -1.24325 
2.5 -2.31033 -0.21691 
2.5 -0.302515 -0.635929 
2.5 0.47586 -1.73734 
2.5 0.162282 -1.48755 
2.5 -1.1726 -2.42065 
2.5 -2.11699 0.699408 
2.5 1.44787 -2.38495 
2.5 -0.678808 -1.99583 
2.5 0.259179 -0.773416 
2.5 0.486236 -1.53027 
2.5 -0.68659 -0.243004 
2.5 -2.37732 1.82844 
2.5 -1.52341 -1.93861 
2.5 -1.29101 -1.25896 
2.5 1.37005 -1.77427 
2.5 -1.8878 -1.22127 
2.5 -1.98073 -0.57535 
2.5 -1.95448 -1.76664 
2.5 -0.969497 -1.17153 
2.5 -0.294427 -1.88993 
2.5 0.132069 -1.78755 
2.5 -1.75428 -0.580996 
2.5 -2.12432 1.92289 
2.5 -0.587558 -1.59818 
2.5 -1.10714 -1.47748 
2.5 -1.72605 -2.45361 
2.5 -1.87284 0.581454 
2.5 -2.08708 0.000228941 
2.5 -2.4884 -1.01009 
2.5 -1.07952 -2.01018 
2.5 0.106281 -0.124439 
2.5 -1.52036 -0.577792 
2.5 0.770821 -2.17421 
2.5 -0.794168 -1.48312 
2.5 -1.22539 1.19533 
2.5 -1.17122 0.900067 
2.5 -1.90809 -0.89259 
2.5 -2.19268 -2.48413 
2.5 -1.36654 -0.110706 
2.5 -2.01537 -1.09874 
2.5 -2.22793 -0.315638 
2.5 -1.6464 1.18862 
2.5 -1.87376 0.766854 
2.5 -2.38098 2.30529 
2.5 -1.42224 1.12636 
2.5 -0.928754 0.335932 
2.5 -2.18627 -0.0643177 
2.5 -2.11379 1.62763 
2.5 0.130085 -1.55377 
2.5 -1.38897 0.351192 
2.5 -2.05947 -1.4494 
2.5 0.292749 -2.49741 
2.5 -1.97249 -2.29461 
2.5 -0.449919 -1.49411 
2.5 -1.78861 -1.89222 
2.5 -2.31903 0.384457 
2.5 -2.24059 0.393918 
2.5 0.127491 -0.709479 
2.5 -1.55667 -2.30056 
2.5 1.38165 -1.57453 
2.5 0.978042 -2.14843 
2.5 -0.388272 -1.2109 
2.5 1.3287 -1.54813 
2.5 -0.703528 -0.396817 
2.5 -2.06099 1.30795 
2.5 -2.18322 1.46176 
2.5 -2.32757 0.0176243 
2.5 -1.72224 -2.29934 
2.5 0.569704 -1.83088 
2.5 -0.162282 -1.01451 
2.5 -1.53958 0.102313 
2.5 -2.25112 -0.581149 
2.5 -1.1581 0.440153 
2.5 0.0640128 -0.376827 
2.5 -0.865581 0.122455 
2.5 1.13613 -1.64304 
2.5 -1.67142 0.889996 
2.5 -1.99538 0.10979 
2.5 -1.16405 -0.413602 
2.5 -2.2911 -0.20455 
2.5 -1.30383 -2.00499 
2.5 -1.93724 1.18145 
2.5 -2.33215 1.06182 
2.5 -1.29437 -1.59024 
2.5 0.994369 -1.22387 
2.5 -1.73017 -1.56781 
2.5 -0.0751517 -1.74818 
2.5 0.675451 -1.91176 
2.5 -0.749916 -0.17983 
2.5 -0.725501 -0.895032 
2.5 1.42056 -2.39212 
