# .PCD v.5 - Point Cloud Data file format
FIELDS x y z
SIZE 4 4 4
TYPE F F F
WIDTH 1803
HEIGHT 1
POINTS 1803
DATA ascii
4.69196 1.35633 -3.34106 
3.58282 0.948204 -1.6897 
2.86295 0.809093 -0.667058 
4.19203 1.24135 -2.62369 
3.97272 1.18221 -2.3056 
3.96676 1.05952 -2.24963 
2.76015 0.799922 -0.525208 
4.50376 1.30272 -3.06697 
4.61497 1.33978 -3.23104 
3.75046 1.21689 -2.02019 
4.20061 1.20582 -2.62134 
3.22817 0.918148 -1.20092 
4.06787 1.2013 -2.44104 
1.0484 0.314865 1.96678 
1.35057 0.417873 1.52008 
2.71433 0.699604 -0.424375 
4.23492 1.16533 -2.65168 
3.13064 0.811586 -1.02809 
4.31984 1.1912 -2.77601 
3.04358 0.933026 -0.958449 
1.71074 0.443715 1.02553 
4.66641 1.42676 -3.33422 
3.06937 0.792324 -0.938154 
4.46889 1.37684 -3.04903 
1.62946 0.453995 1.13085 
4.31736 1.39435 -2.85206 
3.00811 0.798705 -0.858257 
2.16467 0.622972 0.344905 
3.65129 1.12254 -1.84993 
2.95747 0.780607 -0.783059 
3.60326 0.989915 -1.7335 
2.08714 0.572784 0.46881 
1.74102 0.547226 0.944349 
4.54607 1.1899 -3.07979 
4.66362 1.38773 -3.31521 
3.63509 0.988047 -1.77558 
3.50406 1.34914 -1.75806 
4.6464 1.70208 -3.431 
1.02233 0.384169 1.97041 
2.24713 0.778667 0.169088 
4.07298 1.35199 -2.50919 
4.20348 1.64237 -2.81895 
3.44957 1.12723 -1.58097 
3.54342 1.26234 -1.76875 
2.44536 0.797186 -0.10094 
4.43473 1.64166 -3.12337 
0.736867 0.269817 2.40088 
2.01731 0.761023 0.480346 
3.93121 1.37342 -2.33251 
3.77351 1.4598 -2.16567 
1.89468 0.738266 0.652745 
2.3029 0.808363 0.0814996 
4.64309 1.56179 -3.36007 
4.29341 1.51325 -2.8762 
4.41032 1.53612 -3.04112 
2.12855 0.796482 0.316919 
0.172384 0.0610379 3.24386 
4.34084 1.43013 -2.89927 
3.17054 1.13818 -1.21844 
4.53416 1.67615 -3.27078 
1.68909 0.551549 1.01228 
2.18554 0.779549 0.24984 
3.77906 1.4903 -2.18746 
2.10987 0.689861 0.392117 
3.18874 1.12816 -1.23766 
1.31914 0.510237 1.51944 
2.68719 0.924672 -0.480132 
4.16292 1.49749 -2.69675 
4.41014 1.58659 -3.06484 
3.18778 1.20917 -1.27483 
2.94706 0.979088 -0.84843 
3.78843 1.26797 -2.09432 
4.54531 1.6866 -3.29043 
2.62277 0.900556 -0.383785 
2.33137 0.805844 0.0451825 
1.17732 0.45884 1.73072 
4.15785 1.48546 -2.68436 
3.62772 1.3519 -1.92235 
3.4654 1.20979 -1.641 
0.222012 0.0821297 3.16845 
3.03352 1.14371 -1.04048 
3.72845 1.24817 -2.00587 
1.2952 0.466413 1.57178 
4.57808 1.74687 -3.36221 
3.76498 1.39747 -2.12487 
1.50686 0.561984 1.24749 
1.77111 0.698328 0.834544 
2.50744 0.891756 -0.227622 
3.34221 1.25433 -1.49979 
3.25184 1.16675 -1.33914 
1.3512 0.506269 1.47906 
3.31618 1.12132 -1.40237 
1.82902 0.664454 0.774301 
1.82172 0.715355 0.759774 
4.29715 1.51501 -2.88197 
1.32966 0.504871 1.50812 
3.97741 1.45084 -2.43014 
4.61155 1.72189 -3.39447 
4.24015 1.42932 -2.76618 
4.62576 1.87446 -3.4891 
4.40255 1.9398 -3.23852 
1.99024 0.881726 0.451079 
2.8512 1.22476 -0.846507 
2.54365 1.05412 -0.356227 
1.43613 0.65872 1.28744 
2.9843 1.33848 -1.08086 
3.9622 1.76345 -2.57434 
2.59087 1.15738 -0.474364 
2.38809 1.1006 -0.182119 
4.37191 1.74372 -3.09004 
0.236171 0.110551 3.13491 
4.43046 1.75818 -3.17336 
3.11206 1.38465 -1.27078 
2.32065 1.08786 -0.0883358 
4.44283 1.96348 -3.30346 
4.4428 1.80647 -3.21609 
1.73276 0.786997 0.834757 
3.62617 1.4497 -1.96785 
1.84845 0.755452 0.703589 
3.51603 1.49953 -1.85398 
1.14485 0.528041 1.73457 
0.751395 0.317428 2.35751 
3.95729 1.82511 -2.60233 
2.76174 1.19416 -0.714484 
4.50948 1.91966 -3.36477 
3.17219 1.30214 -1.30218 
3.25574 1.37674 -1.45108 
3.24429 1.34407 -1.41818 
1.80788 0.730147 0.769814 
1.11875 0.473912 1.79823 
3.74431 1.50197 -2.14879 
4.26034 1.83526 -2.99754 
3.92775 1.70018 -2.49487 
4.50718 2.03634 -3.42673 
2.01524 0.935318 0.389126 
2.1189 0.976122 0.233177 
2.08862 0.850242 0.342128 
4.31711 2.01205 -3.16887 
3.28196 1.35186 -1.47095 
1.81279 0.776793 0.737556 
3.73424 1.579 -2.1787 
2.21593 0.907811 0.146443 
2.96863 1.28598 -1.03151 
3.13992 1.3602 -1.29299 
3.06505 1.35386 -1.19323 
0.713358 0.29127 2.42096 
3.14761 1.40924 -1.33016 
2.48748 0.99729 -0.252403 
3.55155 1.46046 -1.87791 
4.09707 1.70793 -2.71683 
3.26025 1.39551 -1.46731 
1.6506 0.742614 0.965072 
4.41274 1.99154 -3.28039 
4.30335 2.00929 -3.14965 
1.94849 0.863364 0.514954 
4.47354 1.919 -3.3182 
1.95468 0.854455 0.511963 
4.26048 1.95782 -3.0659 
4.00457 1.58566 -2.52991 
2.7812 1.19721 -0.741188 
4.32015 1.97583 -3.15264 
3.41862 1.5979 -1.78349 
2.67443 1.36024 -0.702734 
2.56099 1.4008 -0.586947 
1.34114 0.652768 1.41113 
2.8513 1.52745 -1.0298 
3.22997 1.77264 -1.6583 
1.73993 0.909849 0.749947 
2.39608 1.21449 -0.262657 
1.96472 1.05524 0.37695 
1.9553 0.939694 0.462188 
3.34554 1.61804 -1.70423 
2.40314 1.23389 -0.283807 
1.24238 0.609748 1.56174 
2.45916 1.3067 -0.400022 
0.885755 0.471138 2.09496 
3.14991 1.50949 -1.39105 
4.05961 2.10194 -2.90312 
3.52415 1.74319 -2.00673 
2.2869 1.25676 -0.153279 
2.32242 1.19645 -0.159261 
4.36947 2.31587 -3.42587 
1.7876 0.883494 0.707221 
3.92941 1.94761 -2.64249 
4.17645 2.06983 -3.02852 
4.21295 2.28341 -3.20989 
4.22402 2.22741 -3.1881 
0.771387 0.406011 2.27911 
3.15019 1.59293 -1.44446 
1.76779 0.913967 0.712562 
3.67801 2.01604 -2.37225 
1.97635 0.999158 0.398099 
4.17048 2.05165 -3.00951 
3.20123 1.61235 -1.52051 
3.92428 2.12465 -2.74866 
2.25485 1.22223 -0.0913265 
2.78965 1.35551 -0.843516 
4.09406 2.0303 -2.90056 
4.02771 2.20789 -2.93068 
3.22902 1.71267 -1.61899 
2.89623 1.48396 -1.05821 
3.65407 1.93033 -2.28787 
4.21623 2.0697 -3.07808 
2.61041 1.28566 -0.575411 
3.5182 1.7065 -1.97597 
4.16726 2.18831 -3.09239 
1.41192 0.735917 1.26992 
1.93527 0.920886 0.499146 
4.05491 1.92035 -2.78178 
3.3728 1.67306 -1.77323 
1.55047 0.737115 1.09624 
4.39538 2.22638 -3.4013 
3.11389 1.60335 -1.40579 
2.55183 1.32405 -0.526704 
0.246175 0.127944 3.11141 
3.40182 1.85261 -1.92363 
2.91822 1.57316 -1.14238 
3.20676 1.51885 -1.46796 
1.93645 0.989447 0.45407 
2.87689 1.46111 -1.01955 
0.897616 0.425351 2.10927 
2.99241 1.50852 -1.19387 
3.91615 2.15069 -2.75507 
2.48972 1.34884 -0.464965 
3.62214 1.74707 -2.13149 
3.61536 2.01237 -2.29363 
2.79837 1.69678 -1.08364 
1.4667 0.837893 1.13427 
3.46829 2.02045 -2.12209 
1.87298 1.09022 0.464538 
3.65969 2.13905 -2.43741 
2.7095 1.65501 -0.946699 
1.03197 0.621408 1.81275 
4.1208 2.35229 -3.14538 
2.71937 1.56431 -0.893933 
2.17497 1.37237 -0.100726 
0.453317 0.262367 2.7664 
2.70547 1.61748 -0.915082 
0.136365 0.0753281 3.28188 
3.06649 1.71323 -1.41861 
3.12508 1.97458 -1.6756 
3.82483 2.31463 -2.7617 
3.77548 2.31059 -2.69932 
3.69404 2.32035 -2.6081 
3.66128 2.24362 -2.51389 
2.7217 1.64097 -0.951399 
3.34877 1.86899 -1.87001 
3.74445 2.30043 -2.65467 
3.71824 2.3055 -2.62668 
3.68749 2.33532 -2.61087 
2.59906 1.53854 -0.730506 
2.33349 1.29817 -0.238945 
1.57137 0.960837 0.920423 
3.75345 2.15998 -2.56537 
3.59035 2.23351 -2.42117 
2.40341 1.34054 -0.35345 
2.87774 1.7127 -1.19066 
3.09962 1.79442 -1.51645 
3.18869 1.8086 -1.63395 
4.18084 2.38408 -3.24044 
4.16095 2.39166 -3.22185 
3.55358 2.13481 -2.30645 
3.81937 2.39277 -2.81083 
2.28414 1.37472 -0.234031 
3.3534 1.88875 -1.88966 
2.55784 1.55671 -0.693762 
2.61432 1.48636 -0.711707 
1.53151 0.90958 1.00502 
1.80046 1.11307 0.535676 
4.13774 2.41861 -3.2131 
4.12943 2.39372 -3.18532 
0.614071 0.37016 2.49573 
3.03522 1.9114 -1.52222 
2.51518 1.53057 -0.623692 
2.37779 1.49023 -0.429289 
3.04151 1.90617 -1.52606 
4.09953 2.35289 -3.12017 
1.43893 0.889649 1.13085 
3.81326 2.1748 -2.64805 
3.45213 1.95339 -2.0548 
1.40861 0.785709 1.24151 
3.74123 2.17315 -2.56003 
3.95544 2.37841 -2.96464 
2.22988 1.27143 -0.0949583 
4.07898 2.5848 -3.26073 
2.74879 1.67516 -1.00844 
3.01055 1.7317 -1.36435 
3.96285 2.38207 -2.97618 
3.12075 2.18366 -1.83454 
3.19875 2.24309 -1.97169 
2.7614 1.86964 -1.17101 
3.72423 2.62036 -2.87748 
4.09776 2.65139 -3.33465 
3.70078 2.42096 -2.69333 
3.84608 2.52708 -2.9452 
2.01617 1.44018 0.0304422 
3.9331 2.51327 -3.03514 
3.93292 2.69424 -3.17742 
1.41992 1.00451 1.0642 
2.36336 1.61905 -0.512604 
3.19841 2.10194 -1.86018 
3.95235 2.70337 -3.20711 
2.37396 1.70005 -0.588656 
3.21085 2.1721 -1.92982 
4.01526 2.60347 -3.20135 
3.44899 2.47047 -2.44061 
2.16506 1.50898 -0.196219 
3.96889 2.79245 -3.29641 
3.4138 2.4715 -2.40066 
1.44719 1.0493 0.99733 
0.843777 0.599752 2.05031 
3.37668 2.34731 -2.25988 
3.67033 2.38301 -2.62818 
4.04723 2.91814 -3.48611 
3.61975 2.42596 -2.6034 
1.45517 0.979765 1.04283 
2.01075 1.36186 0.0983763 
3.30786 2.21848 -2.07872 
3.91619 2.60923 -3.09111 
1.60715 1.13439 0.745033 
3.59819 2.32364 -2.49786 
2.14504 1.46463 -0.138112 
3.747 2.65252 -2.92918 
1.98248 1.28001 0.195578 
3.85417 2.75965 -3.13768 
3.40803 2.41949 -2.35302 
1.18209 0.756147 1.53525 
2.4542 1.6254 -0.622837 
3.12405 2.17229 -1.82942 
2.83527 1.97584 -1.34021 
2.95467 1.97273 -1.47607 
2.45499 1.66115 -0.651891 
3.06756 2.07334 -1.68607 
2.09676 1.40896 -0.0383465 
3.60217 2.49415 -2.63672 
1.49788 0.996692 0.980026 
3.243 2.15518 -1.95375 
3.10087 2.19825 -1.82301 
3.3987 2.29836 -2.24685 
0.699181 0.4633 2.32525 
2.96519 2.02264 -1.52756 
0.290045 0.185362 3.01805 
1.60281 1.09789 0.778787 
1.06575 0.751784 1.67347 
3.78686 2.43079 -2.80079 
3.78814 2.46201 -2.82685 
2.94476 1.89803 -1.40579 
2.72944 1.92507 -1.17763 
2.57702 1.77843 -0.885602 
3.98129 2.67652 -3.2195 
2.46805 1.76619 -0.749733 
3.91987 3.01674 -3.42822 
3.50555 2.57492 -2.59037 
0.770138 0.596252 2.13576 
3.02014 2.35265 -1.86232 
1.32386 1.02533 1.15456 
2.00871 1.54292 -0.0477462 
0.853137 0.658213 1.99071 
1.32818 1.06381 1.11675 
2.65736 2.05092 -1.20177 
3.9534 2.93942 -3.39895 
3.87992 3.06601 -3.4263 
2.79989 2.18022 -1.47052 
2.9839 2.25256 -1.73627 
3.62344 2.91017 -3.00865 
1.73897 1.28248 0.474365 
1.16816 0.941629 1.39874 
2.22354 1.7191 -0.436766 
2.87473 2.34378 -1.69376 
0.768114 0.632206 2.10714 
3.69036 2.72012 -2.91957 
1.58835 1.20344 0.70893 
3.69161 2.80288 -2.99199 
3.74258 2.76628 -3.01698 
2.26881 1.7879 -0.54593 
1.24817 0.933286 1.31735 
3.09677 2.27352 -1.87919 
2.98771 2.40615 -1.87236 
2.22996 1.65011 -0.38464 
1.23787 0.925661 1.33529 
2.72706 2.10938 -1.3291 
2.91394 2.21409 -1.62583 
3.61368 2.71522 -2.83048 
3.79813 2.8273 -3.13085 
1.73024 1.37711 0.402798 
3.98013 2.98659 -3.46902 
2.57785 1.98372 -1.05608 
1.42545 1.04815 1.02254 
3.60341 2.6344 -2.74973 
3.95435 2.96881 -3.42523 
3.05071 2.28189 -1.8354 
3.06807 2.26947 -1.84394 
2.51397 1.89686 -0.91081 
1.90172 1.41583 0.179769 
3.18113 2.54599 -2.20647 
2.73467 2.18417 -1.40173 
3.18788 2.59402 -2.25518 
1.81356 1.49589 0.208609 
3.37795 2.58115 -2.4545 
2.18601 1.65775 -0.342555 
2.63778 1.98011 -1.11931 
1.1425 0.834114 1.51944 
3.07643 2.29228 -1.87278 
1.96913 1.53621 0.0018158 
3.27274 2.60133 -2.35537 
1.104 0.867324 1.53354 
2.98602 2.45088 -1.90889 
2.94999 2.17856 -1.63523 
2.57455 1.99146 -1.05907 
3.87564 2.98866 -3.35516 
1.95861 1.46068 0.0782952 
2.50716 1.96213 -0.959303 
1.84398 1.51639 0.157338 
2.59047 1.91843 -1.01399 
2.03824 1.81586 -0.323542 
3.19459 2.80107 -2.45108 
3.11852 2.6957 -2.27355 
2.3846 2.17368 -1.01891 
3.17228 2.81276 -2.43847 
3.38622 2.91511 -2.75806 
0.749316 0.665065 2.09667 
2.96776 2.59871 -2.02532 
2.62796 2.36905 -1.45556 
2.16285 1.8145 -0.453215 
3.64187 3.08432 -3.1834 
1.94783 1.73644 -0.154988 
3.81081 3.19713 -3.46539 
3.17496 2.95041 -2.56879 
1.63915 1.42767 0.455351 
1.00747 0.945356 1.5658 
2.26031 2.06766 -0.790109 
3.64156 3.31783 -3.39938 
1.623 1.42638 0.47351 
1.40869 1.17869 0.928114 
2.78427 2.4655 -1.70914 
1.53688 1.34186 0.642277 
1.5906 1.47835 0.459411 
2.11043 1.96391 -0.53653 
3.35054 2.88779 -2.69526 
0.322207 0.270831 2.9106 
2.85955 2.50005 -1.82023 
1.50033 1.38701 0.638859 
2.06854 1.80732 -0.347469 
3.06084 2.81094 -2.3197 
2.03639 1.90122 -0.400662 
2.46015 2.06908 -1.00139 
2.83026 2.42418 -1.71918 
2.92338 2.59669 -1.97682 
1.7622 1.62043 0.147511 
1.20743 1.01514 1.29107 
3.23951 2.87119 -2.56323 
1.47165 1.25696 0.789468 
2.19579 1.88969 -0.557467 
2.61973 2.38046 -1.45749 
3.15135 2.77216 -2.37887 
1.44011 1.2752 0.805704 
2.4612 2.0635 -0.99733 
1.80841 1.54795 0.166097 
2.99421 2.80302 -2.24236 
2.45136 2.11825 -1.03771 
1.35292 1.2408 0.929182 
3.10173 2.5872 -2.15542 
2.00059 1.68812 -0.16567 
3.57279 3.21411 -3.23104 
3.53297 2.93546 -2.9311 
1.11153 0.98554 1.41925 
2.24301 1.93438 -0.648473 
3.36464 2.94074 -2.75913 
0.64564 0.563566 2.29962 
1.76411 1.52024 0.238304 
2.49059 2.26056 -1.21075 
2.10742 1.77313 -0.356655 
1.42866 1.23953 0.85078 
3.4914 2.89314 -2.84822 
2.60574 2.41571 -1.47543 
2.7316 2.51257 -1.69739 
1.028 0.86695 1.61686 
3.23672 3.18012 -2.85548 
2.81336 2.7323 -1.99263 
1.15477 1.16327 1.20412 
2.53139 2.58935 -1.57178 
2.45459 2.57556 -1.48206 
2.7237 2.80837 -1.97917 
2.14768 2.12323 -0.730079 
1.54629 1.62459 0.359432 
2.71805 2.64125 -1.80805 
2.40513 2.40092 -1.26009 
2.95737 3.02657 -2.42672 
2.56212 2.4387 -1.453 
0.544583 0.578956 2.3872 
0.948316 0.890673 1.67859 
2.61677 2.74166 -1.8072 
2.83269 2.8014 -2.08022 
3.02272 2.90083 -2.36691 
2.15806 2.2248 -0.840953 
2.26534 2.16281 -0.885815 
2.13137 2.19779 -0.787759 
2.73374 2.74937 -1.93068 
2.59063 2.69231 -1.73243 
2.76206 2.68373 -1.89372 
0.729148 0.75999 2.0251 
3.34278 3.43232 -3.21032 
3.4649 3.5259 -3.42395 
3.41571 3.3898 -3.24044 
3.37551 3.32173 -3.1332 
3.19506 3.13227 -2.76682 
2.27822 2.28021 -1.01485 
2.64796 2.70401 -1.80079 
2.41323 2.39519 -1.26244 
2.94255 3.11624 -2.50085 
2.91645 2.96115 -2.32141 
1.56115 1.4717 0.496155 
2.37903 2.34117 -1.17507 
3.52881 3.3179 -3.28124 
2.03285 1.99864 -0.49295 
1.89639 1.80488 -0.165883 
3.29346 3.22453 -2.95567 
3.35944 3.20688 -3.00352 
2.84507 2.88349 -2.17379 
2.71622 2.80786 -1.97127 
2.22122 2.20284 -0.881756 
3.14162 3.16672 -2.74802 
2.07783 2.06173 -0.599979 
0.659652 0.680442 2.17272 
3.23072 3.29353 -2.96187 
1.51928 1.51637 0.493377 
1.9253 2.03696 -0.424375 
3.02794 2.9325 -2.40344 
1.90139 1.85813 -0.223563 
2.98291 3.10025 -2.52499 
2.39725 2.53886 -1.38891 
2.81516 2.93993 -2.20006 
2.56491 2.66454 -1.67945 
1.99041 1.99817 -0.450438 
1.19656 1.26728 1.05971 
1.98779 1.95118 -0.401303 
2.32199 2.4256 -1.2022 
3.43872 3.51692 -3.38913 
1.82797 1.72469 -0.0186927 
3.37666 3.54015 -3.35067 
1.3223 1.58585 0.608951 
2.37771 2.54265 -1.37396 
1.04276 1.19649 1.27697 
3.02895 3.35865 -2.83454 
1.83449 2.14564 -0.453642 
3.2407 3.61562 -3.30068 
2.5253 2.91902 -1.90611 
2.05331 2.34677 -0.867656 
3.24596 3.79358 -3.49252 
3.10634 3.62835 -3.1896 
1.70596 2.00337 -0.18511 
2.71625 3.00626 -2.17464 
2.53427 2.92209 -1.91765 
1.66034 1.87239 -0.005234 
2.88724 3.33251 -2.67582 
2.43227 2.85444 -1.75208 
0.999301 1.20736 1.30581 
1.02338 1.11375 1.38186 
3.23008 3.69147 -3.37054 
3.20978 3.47249 -3.12166 
2.86785 3.10399 -2.41775 
2.77728 3.18811 -2.42224 
1.34731 1.50972 0.665777 
3.15737 3.65005 -3.25967 
2.22805 2.59449 -1.28979 
2.34359 2.64451 -1.44937 
2.41165 2.85453 -1.73307 
2.56146 2.94712 -1.96913 
1.37283 1.46322 0.690985 
3.01476 3.32968 -2.79096 
2.97824 3.59835 -3.03941 
3.03428 3.34318 -2.82322 
2.84141 3.2741 -2.57199 
0.992196 1.10241 1.42267 
2.92563 3.25617 -2.63117 
3.20193 3.73683 -3.39212 
2.66125 3.17553 -2.30154 
2.38758 2.75639 -1.60767 
0.548119 0.607817 2.35366 
2.91741 3.31486 -2.68522 
1.36776 1.53845 0.616642 
2.81308 3.14557 -2.4107 
3.27842 3.57993 -3.29812 
2.31469 2.74583 -1.52905 
2.03558 2.42116 -0.929395 
1.01407 1.11362 1.39062 
2.49814 2.88522 -1.84544 
3.09261 3.65672 -3.20669 
3.09637 3.68919 -3.24429 
2.44171 2.79813 -1.70167 
3.00219 3.31352 -2.76234 
2.52867 2.88962 -1.87834 
3.16976 3.47667 -3.08898 
1.777 2.10666 -0.359432 
2.12843 2.47655 -1.0736 
1.52671 1.67322 0.327815 
3.25772 3.75637 -3.46432 
1.17839 1.2648 1.07958 
2.95468 3.16244 -2.5596 
0.873592 1.02703 1.61173 
1.82798 2.03629 -0.332728 
2.15189 2.59616 -1.221 
3.06278 3.36278 -2.87022 
2.3468 2.96523 -1.79652 
1.57243 1.95069 -0.00886559 
2.45628 3.14436 -2.08876 
1.35149 1.75918 0.392758 
0.528011 0.707836 2.2633 
2.24144 2.96048 -1.70081 
3.06454 3.92854 -3.47885 
3.11141 3.78351 -3.35858 
2.44104 3.04693 -1.96785 
3.17523 3.83882 -3.47458 
1.74568 2.24713 -0.485687 
1.47981 1.79592 0.241936 
2.21235 2.93479 -1.6474 
1.57917 2.16956 -0.25689 
0.382455 0.468862 2.65275 
2.08219 2.54702 -1.10649 
2.57022 3.25731 -2.31158 
2.0334 2.60185 -1.12529 
2.41941 3.03533 -1.93645 
2.66029 3.59838 -2.7664 
1.99193 2.53094 -1.01122 
2.41719 3.32524 -2.25539 
3.08463 3.93187 -3.49979 
2.94251 4.03072 -3.48718 
3.09378 3.89138 -3.46283 
1.03698 1.30768 1.16247 
1.06011 1.34147 1.10521 
2.87126 3.50654 -2.84587 
2.16234 2.74427 -1.39361 
1.9071 2.61856 -1.03536 
1.99131 2.44823 -0.919141 
1.15552 1.5045 0.842875 
1.35045 1.70305 0.455779 
1.89136 2.53599 -0.930464 
2.67569 3.51251 -2.68458 
1.34365 1.66991 0.498291 
2.09016 2.77652 -1.36734 
2.93242 3.82333 -3.24899 
3.07062 3.87287 -3.42245 
2.76413 3.44062 -2.68094 
2.22207 2.73519 -1.43484 
2.89439 3.88776 -3.28765 
2.87605 3.83849 -3.21737 
1.90279 2.43621 -0.829844 
2.4305 3.09255 -2.00929 
2.75902 3.63549 -2.89222 
2.2179 2.82915 -1.53525 
2.04378 2.62179 -1.15627 
2.20284 2.95124 -1.65744 
2.23763 2.97984 -1.71897 
2.4552 3.07957 -2.01613 
2.39613 3.2885 -2.19665 
1.25375 1.61013 0.641636 
0.883323 1.15818 1.45984 
2.93508 3.7153 -3.1317 
1.04476 1.303 1.16097 
2.59454 3.36757 -2.4545 
1.85946 2.41867 -0.773232 
2.45819 3.23978 -2.19601 
3.08487 3.81221 -3.36755 
1.89094 2.57936 -0.978103 
2.78574 3.63773 -2.91765 
1.2387 1.5666 0.702734 
1.81657 2.84946 -1.23125 
1.91159 2.98183 -1.45941 
2.62317 3.77192 -2.93495 
1.99745 2.91832 -1.45343 
0.996974 1.53402 0.937941 
2.27199 3.38306 -2.20797 
1.9831 2.84656 -1.359 
1.11814 1.56324 0.808695 
1.96863 3.07067 -1.60724 
2.55392 3.72586 -2.82707 
2.69982 4.18785 -3.47714 
2.13079 3.05175 -1.71299 
1.11953 1.70115 0.647831 
2.0251 3.12229 -1.71149 
1.82704 2.55007 -0.892651 
1.10032 1.65409 0.717475 
1.747 2.53162 -0.808267 
0.996836 1.41591 1.07488 
1.74834 2.52205 -0.798227 
0.923768 1.4143 1.13427 
2.30294 3.41421 -2.26843 
1.06249 1.65841 0.742256 
0.927593 1.44379 1.09709 
1.86206 2.71934 -1.11632 
2.42172 3.36447 -2.30432 
2.10584 2.90496 -1.52329 
1.99682 2.98366 -1.52863 
2.46125 3.57548 -2.5799 
0.735338 1.13224 1.60938 
2.78037 3.88472 -3.18938 
2.08857 3.01775 -1.64035 
2.54183 3.75381 -2.84993 
2.5056 3.77622 -2.84736 
2.36074 3.34985 -2.23937 
0.449789 0.679411 2.35879 
1.31631 1.88939 0.274834 
2.67902 3.96465 -3.2022 
1.03474 1.56312 0.874493 
1.98001 2.83133 -1.33892 
1.65385 2.57962 -0.790536 
1.81456 2.5934 -0.933027 
1.7214 2.37162 -0.602756 
0.864132 1.21252 1.41498 
2.35717 3.25214 -2.12337 
2.6649 3.93184 -3.15307 
2.5001 3.76299 -2.82771 
1.96763 2.82831 -1.32568 
1.13918 1.69554 0.638859 
2.57224 3.78551 -2.9106 
2.60847 3.65154 -2.78391 
0.361631 0.501442 2.63437 
2.163 3.26387 -1.98408 
1.77423 2.48675 -0.777719 
1.17908 1.82904 0.452788 
1.47561 2.18885 -0.1975 
1.79771 2.56594 -0.887951 
1.47669 2.27202 -0.294702 
2.35055 3.44676 -2.34362 
1.06684 1.55292 0.861034 
2.4169 3.66924 -2.6536 
2.31818 3.34503 -2.20028 
2.68234 3.96332 -3.20327 
2.83107 4.01051 -3.37503 
1.49363 2.49308 -0.570711 
1.13982 2.01676 0.255821 
1.46243 2.30457 -0.321192 
1.6836 3.05849 -1.38784 
1.82086 3.2408 -1.70551 
1.80228 3.26313 -1.71918 
2.12077 3.68556 -2.45556 
0.737599 1.30754 1.39767 
0.744257 1.33691 1.35751 
2.23969 3.88049 -2.77537 
2.04746 3.55208 -2.24236 
1.42857 2.32991 -0.327601 
2.46347 4.21027 -3.33251 
2.11441 3.67462 -2.43783 
0.775669 1.28715 1.39511 
2.18945 3.96938 -2.84672 
1.22939 2.04991 0.151997 
0.360317 0.608198 2.50983 
1.57557 2.59754 -0.755074 
2.3941 4.18166 -3.24856 
2.56238 4.07593 -3.24108 
1.36965 2.26021 -0.201559 
2.22365 3.71509 -2.56452 
1.70143 2.89007 -1.1975 
1.82544 3.29568 -1.77494 
0.741417 1.3331 1.36413 
2.44016 3.96057 -3.01485 
0.2064 0.329955 2.95503 
2.02816 3.39817 -2.04305 
1.55288 2.79736 -0.979812 
2.14601 3.69314 -2.4827 
0.760546 1.24878 1.45215 
0.9221 1.49026 1.04582 
2.62593 4.23202 -3.47458 
2.35895 4.22016 -3.26992 
2.63278 4.22194 -3.46731 
2.07558 3.49894 -2.19836 
1.87468 3.17495 -1.66449 
0.777981 1.30687 1.36969 
2.4114 4.16752 -3.24386 
1.23629 2.15852 0.016129 
0.207001 0.366809 2.91017 
1.46575 2.52977 -0.595065 
2.40469 4.05561 -3.10414 
1.32431 2.25123 -0.158406 
1.0804 1.90891 0.42822 
1.76213 2.92097 -1.27804 
1.04306 1.66786 0.745461 
1.8517 3.18021 -1.65445 
0.779764 1.35259 1.31329 
2.39636 4.19538 -3.26672 
1.99331 3.51765 -2.16225 
1.96836 3.52408 -2.15221 
1.33808 2.30829 -0.237022 
1.25651 2.03759 0.147511 
1.45005 2.42104 -0.452788 
2.18095 3.54117 -2.3244 
1.31996 2.20774 -0.102863 
1.91545 3.31599 -1.8636 
1.47872 2.54867 -0.62711 
0.867103 1.49603 1.07808 
2.38462 4.13446 -3.1849 
1.56793 2.81309 -1.00951 
1.56672 3.1774 -1.46176 
1.51951 2.82728 -0.994766 
0.740058 1.55308 1.09111 
2.18899 4.08647 -2.99199 
2.00154 4.03202 -2.80485 
1.63782 3.47582 -1.87941 
2.04067 3.89347 -2.6568 
1.20462 2.22582 -0.0439007 
0.525432 1.00359 1.91337 
1.10763 2.29339 -0.0665457 
1.53865 2.88873 -1.08364 
0.782891 1.61274 0.989425 
1.85162 3.64949 -2.23211 
0.461958 0.902073 2.08043 
1.32799 2.46457 -0.420316 
0.898564 1.75664 0.736274 
2.1707 4.3962 -3.36691 
1.07803 2.01302 0.302179 
1.8791 3.96124 -2.63865 
1.7035 3.51922 -1.97533 
1.85091 3.78218 -2.39724 
2.30632 4.31939 -3.3573 
1.26778 2.38159 -0.278466 
1.73297 3.231 -1.63437 
0.563217 1.06667 1.81062 
1.83645 3.64815 -2.22079 
0.886092 1.74742 0.755714 
1.23014 2.33127 -0.191732 
0.890062 1.78117 0.711066 
1.63552 3.18908 -1.52008 
1.64293 3.01602 -1.3088 
0.765924 1.46099 1.1896 
1.31411 2.77496 -0.798868 
1.47933 2.7031 -0.814249 
1.95086 4.09705 -2.85377 
0.875717 1.66249 0.868298 
1.61114 3.13149 -1.43271 
1.66358 3.3338 -1.71854 
0.846937 1.72611 0.807199 
0.735535 1.47031 1.19729 
0.596161 1.19042 1.63523 
1.97122 4.11509 -2.88923 
1.94571 3.67858 -2.32824 
2.01482 3.91023 -2.66129 
1.18816 2.46136 -0.327387 
1.58152 3.25289 -1.56537 
1.17529 2.48503 -0.34875 
1.9092 3.94625 -2.63907 
1.99258 3.73909 -2.43356 
1.24824 2.59747 -0.535462 
0.791135 1.54965 1.06291 
1.94055 3.73428 -2.39447 
2.12229 4.50713 -3.47458 
2.22114 4.13051 -3.0674 
2.20749 4.21398 -3.16289 
1.49203 2.95545 -1.13726 
1.90331 3.88078 -2.55362 
1.81243 3.85108 -2.45877 
1.4998 3.15382 -1.38977 
2.00682 3.88931 -2.6301 
2.11914 4.20867 -3.10009 
1.13678 2.17515 0.0624869 
0.310857 0.649039 2.49231 
1.01717 2.31585 -0.0428326 
1.81092 4.35031 -3.09966 
2.08141 4.52757 -3.478 
0.883109 2.10198 0.306665 
1.93977 4.46987 -3.32504 
1.61084 3.46903 -1.85548 
1.86389 4.13178 -2.84822 
1.91535 4.26407 -3.04689 
1.53006 3.61433 -1.99733 
0.437821 1.05394 1.90162 
0.863346 1.85527 0.6348 
0.669635 1.57416 1.10393 
0.679852 1.59533 1.07103 
1.145 2.48255 -0.328242 
1.01778 2.29913 -0.0216835 
0.522445 1.11354 1.77793 
1.31811 3.07903 -1.19131 
1.35372 3.02274 -1.13875 
1.97949 4.51251 -3.40194 
1.54876 3.48658 -1.84352 
1.47342 3.16039 -1.38229 
1.34571 3.24191 -1.41604 
0.879218 1.97188 0.476074 
1.3983 3.38584 -1.63031 
1.26511 3.08585 -1.17058 
1.18093 2.53364 -0.413907 
1.8481 4.04821 -2.732 
0.541332 1.30346 1.52329 
1.64804 3.79793 -2.29897 
0.763074 1.84615 0.702307 
1.82213 4.57811 -3.39874 
1.22788 2.66057 -0.603183 
1.71097 4.30581 -2.98686 
0.97725 2.3067 -0.00886559 
0.804537 1.98359 0.502563 
0.748803 1.84235 0.715125 
1.93273 4.49452 -3.35281 
0.38416 0.868927 2.1693 
0.273969 0.642073 2.52222 
1.4379 3.22661 -1.44766 
1.96542 4.30555 -3.12807 
1.79905 4.42192 -3.18511 
1.65475 3.65925 -2.12444 
1.1207 2.73586 -0.640355 
1.90391 4.51979 -3.36926 
1.27865 2.85481 -0.881115 
1.76758 3.90341 -2.50107 
2.02259 4.49702 -3.406 
1.69193 3.70797 -2.20775 
1.79591 4.22751 -2.93345 
1.11767 2.42176 -0.234886 
1.38864 3.37955 -1.61686 
0.956391 2.33218 -0.030015 
1.74716 4.10053 -2.74311 
0.49729 1.16663 1.72367 
0.724304 1.56994 1.07894 
1.0521 2.57527 -0.395749 
0.984606 2.43048 -0.172079 
0.309677 0.668831 2.46796 
1.2508 2.80786 -0.805277 
0.768786 1.90683 0.621128 
0.797224 1.98277 0.50769 
0.581131 1.32628 1.4718 
1.67875 4.25847 -2.90867 
1.62736 4.2982 -2.93666 
1.14826 3.16059 -1.2101 
1.58157 4.28227 -2.89393 
1.71035 4.33673 -3.02681 
1.67188 4.65387 -3.42651 
0.391127 1.17577 1.7649 
1.34018 3.49918 -1.74738 
0.699692 1.88312 0.686285 
0.69829 1.8598 0.717689 
1.20514 3.05987 -1.10436 
1.67586 4.55712 -3.3009 
1.3718 3.52103 -1.79118 
0.684811 1.80678 0.793954 
1.45418 4.30819 -2.86766 
1.70171 4.45996 -3.18511 
0.941908 2.89707 -0.764901 
1.40356 4.02848 -2.47501 
1.30006 3.73181 -2.03493 
1.06651 3.26654 -1.31094 
0.459627 1.2448 1.64142 
1.50234 3.80455 -2.22677 
1.59079 4.72164 -3.47736 
1.53125 4.1245 -2.66214 
1.26952 3.54618 -1.7758 
1.06957 3.12344 -1.1238 
1.685 4.56859 -3.32034 
1.35735 3.71216 -2.03621 
0.900757 2.49917 -0.221 
1.56478 3.98178 -2.48996 
1.56437 4.64735 -3.36691 
1.06785 3.20121 -1.22549 
1.18542 3.59007 -1.79374 
1.35319 3.42577 -1.6568 
0.737155 1.94258 0.590152 
1.55696 4.25206 -2.84245 
1.46211 4.16933 -2.68842 
1.47555 4.03709 -2.52051 
1.52178 4.05854 -2.57071 
0.511618 1.35852 1.46689 
0.899328 2.46743 -0.178488 
1.3352 3.6561 -1.95183 
0.910501 2.75681 -0.565157 
1.57248 4.3828 -3.02211 
1.04628 2.85771 -0.762551 
1.39829 4.22538 -2.732 
1.31353 3.49484 -1.72901 
1.40587 3.74446 -2.10179 
0.948577 2.56868 -0.335292 
1.33267 3.90649 -2.2806 
1.12371 3.03051 -1.02702 
1.57175 4.58974 -3.29449 
1.12254 3.06578 -1.07295 
1.39121 3.92804 -2.33679 
1.53097 4.48706 -3.13982 
1.49901 3.88129 -2.32632 
1.00593 2.72294 -0.565798 
1.48039 3.98185 -2.45001 
1.0082 2.59325 -0.395962 
1.28426 3.47927 -1.69462 
0.448844 1.17865 1.73371 
1.43838 3.72643 -2.09346 
1.15474 3.20997 -1.27825 
0.519964 1.8768 0.772377 
0.611932 2.31813 0.142811 
1.15484 3.57187 -1.75571 
1.20782 4.08409 -2.46539 
0.953991 3.29129 -1.29983 
0.938141 3.33512 -1.3526 
1.29268 4.53828 -3.10949 
0.782616 2.44579 -0.0955992 
0.914143 2.98776 -0.875988 
1.0714 3.72888 -1.93431 
1.45143 4.77217 -3.48611 
0.704749 2.56355 -0.223563 
1.09252 3.71211 -1.92 
0.471343 1.46416 1.3464 
1.51911 4.69041 -3.40259 
1.24937 4.33344 -2.81703 
0.842103 3.06872 -0.95674 
0.50954 1.6886 1.02959 
1.08305 3.46852 -1.58866 
0.46592 1.71874 1.00609 
1.24312 4.12068 -2.52841 
1.16542 3.99475 -2.32867 
1.17556 4.53197 -3.05522 
0.263564 0.854451 2.2477 
1.27287 4.80641 -3.4624 
1.03115 3.31604 -1.36328 
0.865904 2.75607 -0.545503 
1.28898 4.24998 -2.72025 
0.420493 1.47258 1.35495 
0.589045 2.12593 0.410275 
0.931067 3.0964 -1.02873 
1.50613 4.73261 -3.45428 
1.15704 4.15967 -2.54721 
1.24238 4.2181 -2.65915 
0.893488 3.21738 -1.17678 
0.906631 2.83668 -0.669836 
0.329588 1.14847 1.82643 
0.636083 2.1561 0.351314 
0.141852 0.455271 2.83219 
0.828456 2.75917 -0.535035 
0.153959 0.578018 2.66236 
0.199231 0.658253 2.53674 
1.10064 3.96783 -2.26714 
0.671901 2.07422 0.447447 
0.378141 1.46964 1.37545 
1.09137 3.68655 -1.88517 
1.11928 3.72879 -1.95289 
0.558619 1.72818 0.957167 
0.642385 2.28228 0.179128 
0.898053 3.11981 -1.04732 
0.962631 3.69441 -1.84544 
1.04298 3.39996 -1.48077 
0.668704 2.33435 0.0988035 
0.949486 3.38821 -1.42843 
1.34508 4.68157 -3.32269 
0.932595 2.95317 -0.83668 
1.04545 3.60968 -1.76383 
1.11851 4.22772 -2.62369 
0.16835 0.524919 2.72816 
0.245149 0.887754 2.2101 
0.693606 2.34411 0.0759454 
1.27643 4.78045 -3.42886 
0.637021 2.20633 0.28338 
1.10687 4.53666 -3.03963 
0.399927 1.92085 0.752083 
1.11459 4.70544 -3.2727 
0.951315 3.94099 -2.17785 
0.652438 2.75302 -0.462615 
1.09742 4.32185 -2.74311 
0.537347 2.62528 -0.252831 
0.763137 3.24635 -1.1708 
0.527864 2.45643 -0.01912 
0.863597 4.21471 -2.52521 
1.05817 4.35438 -2.77558 
0.292745 1.32125 1.60446 
0.460612 1.88181 0.786905 
0.683691 2.94201 -0.730506 
1.10819 4.60997 -3.14025 
0.324751 1.42833 1.4483 
0.472463 2.12796 0.446806 
0.661327 3.05922 -0.883892 
0.949624 3.98638 -2.23937 
0.735991 3.6414 -1.70252 
0.68524 3.36753 -1.31265 
1.02328 4.47627 -2.93153 
0.384943 1.6146 1.17528 
1.02697 4.01785 -2.30602 
0.672074 3.44439 -1.41369 
0.941854 4.85469 -3.42395 
0.879347 4.45968 -2.86488 
0.404809 2.02478 0.608524 
0.870317 3.74546 -1.88582 
0.812653 4.21641 -2.51196 
0.634327 2.75988 -0.46646 
0.482022 2.41072 0.0573595 
0.107576 0.441671 2.86338 
0.688178 3.07306 -0.911023 
1.03622 4.75984 -3.32311 
0.452676 2.30132 0.215873 
0.575661 2.3601 0.097949 
0.815733 4.16634 -2.44446 
0.645977 2.94122 -0.717902 
0.607976 2.49212 -0.0923948 
0.926217 4.78192 -3.3197 
0.498106 2.19724 0.344264 
0.909333 4.09853 -2.38037 
0.644572 2.79135 -0.512604 
1.0145 4.16535 -2.50385 
0.94812 4.55589 -3.01741 
0.069205 0.346321 3.00545 
0.886352 3.99708 -2.23467 
1.1311 4.49842 -2.99477 
0.97829 3.8862 -2.11119 
0.300988 1.37785 1.52457 
0.405419 1.83117 0.872997 
0.898381 3.88281 -2.08214 
0.342561 1.5872 1.2257 
0.380472 1.83768 0.871716 
0.890068 3.66681 -1.78434 
0.422632 1.73824 0.994766 
0.925514 4.44889 -2.86424 
0.444814 2.03037 0.588656 
0.650729 3.19505 -1.06633 
0.694049 3.1177 -0.97383 
1.02821 4.72818 -3.2774 
0.328077 1.53714 1.29855 
0.479953 2.78041 -0.45172 
0.624203 4.32507 -2.62027 
0.385263 2.76391 -0.408139 
0.398535 2.19463 0.376522 
0.0445808 0.330189 3.03343 
0.497053 3.10337 -0.902265 
0.604616 4.40739 -2.72987 
0.54507 3.95897 -2.09645 
0.889361 4.8521 -3.4075 
0.128725 0.852539 2.29235 
0.257744 1.40299 1.50256 
0.669596 3.6616 -1.71235 
0.716668 4.31768 -2.63031 
0.883244 4.69804 -3.19301 
0.407685 2.90181 -0.603824 
0.279564 1.58252 1.24941 
0.554681 3.13733 -0.961867 
0.795552 4.20126 -2.48654 
0.71484 4.93734 -3.48718 
0.131745 1.02192 2.05736 
0.57482 4.29645 -2.56986 
0.571201 3.00871 -0.787545 
0.390931 3.00066 -0.736915 
0.803068 4.80292 -3.32055 
0.231639 1.63875 1.18212 
0.654356 4.86029 -3.36734 
0.617103 4.66808 -3.09325 
0.577526 4.02347 -2.1928 
0.338756 2.44638 0.0413373 
0.800113 4.69453 -3.16994 
0.677046 4.29462 -2.58972 
0.521924 3.75664 -1.81147 
0.717016 4.44008 -2.79972 
0.659779 3.57189 -1.58609 
0.614046 4.69991 -3.13662 
0.469389 3.04692 -0.818094 
0.00458723 0.0262966 3.46261 
0.184865 1.02493 2.04155 
0.624324 4.16028 -2.39233 
0.542007 3.84719 -1.94115 
0.815997 4.63472 -3.09069 
0.604499 3.84733 -1.95503 
0.405386 2.46131 0.00608826 
0.813386 4.57507 -3.00758 
0.602751 3.45539 -1.41241 
0.374076 2.04131 0.593997 
0.527701 3.09034 -0.890942 
0.660131 4.57973 -2.98045 
0.66015 4.02969 -2.2195 
0.562165 4.43326 -2.75636 
0.613661 3.46339 -1.42587 
0.722609 4.677 -3.12871 
0.378512 2.82721 -0.494232 
0.719871 4.30451 -2.6128 
0.845514 4.76593 -3.27868 
0.290828 1.88803 0.824289 
0.925376 4.89952 -3.48099 
0.520232 3.03855 -0.817667 
0.773348 4.56828 -2.98943 
0.571456 3.6824 -1.71961 
0.64508 4.4297 -2.7696 
0.794688 4.73445 -3.22399 
0.816763 4.33935 -2.68223 
0.335007 4.61097 -2.97404 
0.101678 1.42585 1.49829 
0.348009 4.73736 -3.152 
0.557562 4.81942 -3.29406 
0.272523 2.86584 -0.532258 
0.479435 4.69368 -3.10842 
0.226886 1.90148 0.818521 
0.300518 4.5813 -2.92811 
0.159728 1.55916 1.30474 
0.121431 1.33941 1.61621 
0.334193 4.86842 -3.33294 
0.374883 3.61341 -1.58823 
0.334228 4.23587 -2.45087 
0.254989 2.42935 0.0787225 
0.234818 3.57012 -1.5094 
0.214787 2.9577 -0.652745 
0.171687 1.95143 0.756142 
0.55758 4.85328 -3.34127 
0.231044 2.39439 0.130635 
0.355662 4.19094 -2.39105 
0.4237 4.46532 -2.78263 
0.332841 3.83646 -1.89372 
0.480094 3.92334 -2.03429 
0.453326 3.85464 -1.93495 
0.450942 4.75214 -3.18618 
0.240405 3.12333 -0.887097 
0.364866 2.89234 -0.581393 
0.0372289 0.3424 3.01762 
0.308943 4.10743 -2.26843 
0.325172 4.24055 -2.45621 
0.165075 1.9179 0.803782 
0.429573 3.78273 -1.83155 
0.279071 3.29601 -1.13298 
0.589982 4.93417 -3.45834 
0.320376 3.21535 -1.02596 
0.297662 3.95055 -2.04817 
0.319682 3.26551 -1.09581 
0.269303 2.84898 -0.508332 
0.130955 1.41358 1.51154 
0.264512 2.92726 -0.616855 
0.428131 4.09003 -2.25988 
0.48731 3.92741 -2.04091 
0.242966 2.20927 0.387203 
0.326546 4.47006 -2.77644 
0.427067 3.49006 -1.42309 
0.319014 3.37986 -1.25518 
0.386993 4.03233 -2.174 
0.535682 4.71579 -3.14666 
0.181526 2.02664 0.649968 
0.399048 4.77144 -3.20626 
0.158195 1.41958 1.49957 
0.312727 4.47535 -2.78199 
0.259149 3.31474 -1.15648 
0.313241 4.23494 -2.44681 
0.462414 3.8239 -1.89329 
0.397439 4.16968 -2.36691 
0.43449 4.41099 -2.70829 
0.152982 2.26327 0.323756 
0.06451 0.74993 2.44574 
0.311929 3.28999 -1.12893 
0.189989 2.82875 -0.469665 
0.288455 3.96061 -2.06099 
0.0826421 0.861122 2.28829 
0.0523524 3.21317 -1.00075 
0.0875638 4.87716 -3.33187 
0.0336497 1.0204 2.06996 
0.134215 4.95916 -3.44873 
0.194128 3.63308 -1.59485 
0.0751752 1.65357 1.18169 
0.117352 4.13966 -2.30068 
0.143404 4.37292 -2.62839 
0.0450705 4.47275 -2.76383 
0.135193 2.99572 -0.699957 
0.217976 3.63187 -1.59421 
0.0693689 1.83107 0.933455 
0.141583 3.67868 -1.65638 
0.175789 4.37907 -2.63843 
0.0814797 3.90564 -1.97148 
0.155333 2.8988 -0.565157 
0.141756 4.75948 -3.16952 
0.00800987 3.02428 -0.734352 
0.163898 4.48733 -2.78947 
0.14258 4.49059 -2.7931 
0.0932264 3.87918 -1.93495 
0.231284 4.0227 -2.14196 
0.163534 4.36816 -2.62262 
0.0632271 4.71633 -3.10564 
0.267885 4.94001 -3.42779 
0.057718 0.931137 2.19387 
0.0779441 4.37162 -2.62369 
0.0447639 4.23563 -2.43185 
0.201314 4.81987 -3.25668 
0.0756254 4.4074 -2.67368 
0.137674 3.52712 -1.44403 
0.0219316 3.54159 -1.4592 
0.269753 4.77057 -3.19066 
0.102511 2.45733 0.0552232 
0.281979 4.80314 -3.23681 
0.0192967 2.87622 -0.527558 
0.0747727 4.12436 -2.2774 
0.0132796 2.25643 0.340419 
0.0415734 2.65487 -0.21865 
0.136726 4.80481 -3.23275 
0.0154642 2.80279 -0.424589 
0.133516 4.96941 -3.46304 
0.264436 4.28076 -2.5047 
0.0373288 2.88069 -0.534608 
0.113596 3.28816 -1.10842 
0.10138 2.70747 -0.294916 
0.263803 4.76923 -3.18853 
0.224778 4.32458 -2.5643 
0.14097 3.06466 -0.796731 
0.0793143 4.34151 -2.58161 
0.107273 2.15536 0.477782 
0.0458178 4.21027 -2.39639 
0.0174762 4.60027 -2.94114 
0.100412 4.10601 -2.25283 
0.0798987 2.7823 -0.39874 
0.00499186 0.294347 3.0877 
0.192662 3.21395 -1.00801 
0.11557 3.17182 -0.945631 
0.119642 3.9284 -2.00502 
0.0642141 2.45426 0.0612047 
0.120188 2.9762 -0.671972 
0.0766124 2.08048 0.583957 
0.146719 4.74209 -3.14538 
-0.0245092 1.42414 1.50513 
-0.191944 4.44082 -2.72559 
-0.1577 4.07064 -2.20583 
-0.152794 3.66719 -1.64078 
-0.0556008 3.52833 -1.44211 
-0.031542 2.12233 0.527345 
-0.273376 4.4111 -2.68757 
-0.191838 4.71061 -3.10329 
-0.175061 4.2294 -2.42886 
-0.0826681 1.90893 0.823862 
-0.239621 4.27544 -2.49615 
-0.0866924 4.02435 -2.1379 
-0.11466 3.98288 -2.08107 
-0.238538 4.85761 -3.31115 
-0.16662 3.66111 -1.63288 
-0.0940316 2.12846 0.516022 
-0.0477728 2.96047 -0.646764 
-0.129607 3.14559 -0.909528 
-0.068095 4.45249 -2.73649 
-0.0409701 2.86257 -0.5094 
-0.0387089 4.25306 -2.45599 
-0.13711 3.8659 -1.91829 
-0.157729 3.06231 -0.794168 
-0.0489226 3.01552 -0.723884 
-0.0271251 4.46706 -2.75507 
-0.21949 4.4189 -2.69611 
-0.208424 3.75486 -1.76597 
-0.174352 2.91972 -0.595279 
-0.0815184 3.67217 -1.64463 
-0.0941274 1.65282 1.18191 
-0.0809147 1.82567 0.940504 
-0.0969731 2.46544 0.0441144 
-0.0217499 4.06484 -2.19173 
-0.131054 4.36735 -2.62006 
-0.0466039 2.35411 0.2022 
-0.211576 4.87753 -3.33786 
-0.055323 3.0315 -0.746528 
-0.118253 4.83698 -3.27697 
-0.0700207 1.18512 1.83775 
-0.174094 4.00146 -2.1097 
-0.0151292 4.49521 -2.79395 
-0.0461631 2.48749 0.0154881 
-0.167645 2.67075 -0.246422 
-0.0440361 2.14437 0.495941 
-0.259224 4.14588 -2.31564 
-0.0225451 3.53852 -1.45492 
-0.0510209 2.44964 0.0682547 
-0.176978 3.60447 -1.55405 
-0.0811065 3.99248 -2.09304 
-0.00697541 4.00823 -2.11184 
-0.15334 2.74749 -0.353237 
-0.223553 4.66093 -3.03514 
-0.207561 3.64959 -1.61856 
-0.0702412 4.60639 -2.95204 
-0.0951911 3.86691 -1.91786 
-0.0604872 1.11614 1.93474 
-0.00235711 2.15987 0.476074 
-0.00713833 4.71962 -3.10778 
-0.265385 4.66465 -3.04219 
-0.196102 4.15809 -2.32995 
-0.283618 4.75106 -3.16396 
-0.00308524 1.00488 2.09304 
-0.144458 2.50698 -0.016129 
-0.0722937 1.0035 2.09111 
-0.245062 3.08046 -0.827921 
-0.470095 3.96887 -2.09645 
-0.19322 2.498 -0.00886559 
-0.419302 4.31545 -2.57306 
-0.205507 2.70825 -0.303674 
-0.206224 2.52113 -0.0428326 
-0.121829 1.13103 1.90675 
-0.233812 2.04529 0.617069 
-0.122721 1.30651 1.66193 
-0.200572 1.66223 1.15563 
-0.327891 4.38752 -2.6615 
-0.306948 3.94691 -2.04433 
-0.235894 3.59744 -1.54764 
-0.528849 4.63799 -3.03728 
-0.380299 4.9042 -3.38891 
-0.475981 4.49991 -2.83775 
-0.134884 1.47479 1.42566 
-0.592767 4.88197 -3.38592 
-0.488278 4.55941 -2.92235 
-0.313597 4.12629 -2.29534 
-0.481154 3.92049 -2.03044 
-0.302505 4.62416 -2.98814 
-0.452257 4.08254 -2.25262 
-0.0702312 0.612737 2.6363 
-0.24615 3.42627 -1.3103 
-0.455038 4.8714 -3.35302 
-0.370582 4.8587 -3.32418 
-0.499478 4.61764 -3.00502 
-0.350538 3.53483 -1.47543 
-0.34826 4.47644 -2.78819 
-0.310387 4.30629 -2.54593 
-0.440989 4.17246 -2.37652 
-0.432785 4.96251 -3.47714 
-0.374775 4.67814 -3.07295 
-0.21117 2.14334 0.483337 
-0.459347 3.92592 -2.03514 
-0.29451 3.54977 -1.48889 
-0.379932 4.26663 -2.49979 
-0.599399 4.95641 -3.4906 
-0.450993 4.48986 -2.82044 
-0.275947 2.38846 0.132985 
-0.376776 4.08753 -2.24963 
-0.413642 3.76999 -1.81169 
-0.166057 1.60314 1.24258 
-0.42996 4.30387 -2.55832 
-0.528489 4.8044 -3.26928 
-0.297618 4.50344 -2.81916 
-0.461743 4.77593 -3.22079 
-0.193751 1.71113 1.08834 
-0.385754 3.57194 -1.53183 
-0.287876 2.81046 -0.457061 
-0.145207 1.54168 1.33102 
-0.359327 4.15261 -2.33807 
-0.289438 2.48844 -0.00822473 
-0.283419 2.88962 -0.566866 
-0.245601 2.59385 -0.149434 
-0.163774 1.4405 1.46966 
-0.39762 4.86273 -3.33337 
-0.261421 3.08243 -0.832835 
-0.466477 3.81034 -1.87492 
-0.457466 4.57672 -2.94243 
-0.472749 4.01059 -2.15499 
-0.649309 4.8909 -3.40857 
-0.45678 2.8335 -0.520081 
-0.769009 4.10834 -2.35217 
-0.716131 4.16474 -2.41861 
-0.486723 3.53785 -1.50107 
-0.5353 3.8288 -1.91423 
-0.865002 4.71004 -3.20562 
-0.497552 2.93019 -0.662786 
-0.89887 4.72845 -3.23852 
-0.41096 2.79922 -0.462615 
-0.626458 3.69051 -1.7429 
-0.535968 3.02741 -0.805704 
-0.445262 2.62253 -0.2257 
-0.439101 2.54012 -0.11034 
-0.372333 2.00946 0.638432 
-0.157524 1.1091 1.9311 
-0.673268 4.84402 -3.34896 
-0.440235 2.67043 -0.290857 
-0.60963 4.29387 -2.57392 
-0.556059 3.40379 -1.33081 
-0.64742 4.08127 -2.28808 
-0.811152 4.26519 -2.5784 
-0.58374 4.10881 -2.31222 
-0.346657 1.99145 0.668981 
-0.515447 3.60109 -1.59485 
-0.312374 1.8894 0.817667 
-0.458962 3.10786 -0.900128 
-0.558298 4.31343 -2.58972 
-0.540192 3.37697 -1.29022 
-0.780506 4.53472 -2.94456 
-0.471715 3.09781 -0.889019 
-0.749645 4.00177 -2.20049 
-0.795441 4.47383 -2.8636 
-0.844594 4.56286 -2.99754 
-0.656299 4.39596 -2.72538 
-0.345242 2.11212 0.50235 
-0.302728 2.02388 0.633732 
-0.647714 4.105 -2.32098 
-0.578926 4.13705 -2.35025 
-0.180796 1.34492 1.59976 
-0.840099 4.76617 -3.27783 
-0.850888 4.78454 -3.3056 
-0.589128 3.24892 -1.1238 
-0.706478 4.71152 -3.17293 
-0.740756 4.48496 -2.86702 
-0.59826 3.825 -1.92277 
-0.146797 1.12655 1.90931 
-0.439977 3.17974 -0.995407 
-0.2898 2.10005 0.53119 
-0.49503 3.33023 -1.21566 
-0.457639 2.54522 -0.121449 
-0.488653 2.75387 -0.416898 
-0.626448 3.34925 -1.27078 
-0.738204 4.27999 -2.58289 
-0.419526 2.98872 -0.726661 
-0.589914 4.44199 -2.77451 
-0.376479 2.01622 0.628178 
-0.736054 4.32604 -2.64612 
-0.383723 2.15482 0.434843 
-0.87396 4.83323 -3.37802 
-0.167693 1.06085 1.99562 
-0.202225 1.18062 1.82237 
-0.525442 2.84548 -0.551698 
-0.350625 1.47146 1.38144 
-0.824336 4.08002 -2.3291 
-0.612689 2.41277 0.0146337 
-0.700907 3.31839 -1.25027 
-0.698297 3.27756 -1.19366 
-0.737626 3.05513 -0.901624 
-0.796555 4.14843 -2.41412 
-0.594469 2.92538 -0.680517 
-0.785412 3.75975 -1.87941 
-0.661869 3.01706 -0.826426 
-0.812762 3.96009 -2.16161 
-0.919347 4.06957 -2.34384 
-0.90413 4.68418 -3.17934 
-0.714416 2.83012 -0.586947 
-0.890985 3.92166 -2.13298 
-1.00121 4.18426 -2.52564 
-0.870969 4.52625 -2.95332 
-1.07677 4.63809 -3.16909 
-0.194274 0.927861 2.17229 
-1.15454 4.67009 -3.23659 
-0.273497 1.11363 1.89415 
-0.709924 3.08883 -0.939222 
-0.97012 4.05041 -2.33316 
-0.596011 2.71937 -0.39938 
-0.909027 3.56959 -1.65723 
-0.354734 1.82327 0.899274 
-0.579585 2.4519 -0.0287333 
-0.986034 4.86514 -3.45172 
-1.03346 4.19237 -2.54657 
-0.902568 4.49043 -2.91401 
-0.74741 3.89265 -2.04946 
-1.11826 4.71462 -3.28637 
-0.992367 4.09279 -2.39789 
-0.240727 0.977177 2.09069 
-0.539282 2.53561 -0.130848 
-0.46616 2.26299 0.264153 
-0.196733 0.952004 2.13854 
-0.882848 4.14024 -2.42929 
-1.13264 4.78783 -3.39084 
-0.252061 1.0481 1.99028 
-0.314741 1.34165 1.56986 
-0.346233 1.79845 0.935804 
-0.775454 3.58882 -1.6427 
-0.715347 2.95916 -0.763619 
-0.357327 1.53498 1.29257 
-0.356834 1.64683 1.13982 
-0.910858 4.36715 -2.74802 
-0.544248 2.62811 -0.258812 
-0.810296 3.92579 -2.11397 
-0.779527 3.80514 -1.93965 
-1.00731 4.43217 -2.86637 
-0.690055 3.29034 -1.20861 
-0.249996 1.24625 1.72004 
-1.20702 4.84387 -3.49017 
-0.891402 3.80936 -1.9796 
-0.594431 2.45952 -0.0436871 
-0.88938 3.97297 -2.20263 
-1.14274 4.63741 -3.18831 
-0.8069 3.39144 -1.3825 
-0.358783 1.43104 1.4342 
-0.752783 3.17693 -1.07274 
-0.515742 2.34599 0.135548 
-0.327298 1.54763 1.28445 
-0.790276 2.49439 -0.163961 
-0.317083 1.13844 1.8448 
-0.972455 3.15061 -1.11782 
-0.981089 3.35695 -1.39874 
-1.46872 4.63453 -3.30773 
-0.460107 1.44599 1.37524 
-1.4284 4.58748 -3.22869 
-1.21848 3.89008 -2.20861 
-0.923897 3.21284 -1.18255 
-1.12922 4.32642 -2.76063 
-0.6699 2.45582 -0.0650504 
-1.23576 4.63248 -3.21395 
-1.38366 4.5317 -3.13619 
-0.577777 2.24975 0.248131 
-0.63255 2.30277 0.155415 
-0.610447 2.357 0.0911131 
-1.3862 4.71266 -3.38058 
-0.136537 0.508274 2.76298 
-0.580314 1.86037 0.770882 
-1.31917 4.61381 -3.22143 
-1.11515 4.01333 -2.33401 
-1.18168 3.75593 -2.01378 
-1.13762 4.16436 -2.54593 
-1.09998 3.64117 -1.82749 
-1.43141 4.46113 -3.05992 
-1.35095 4.80168 -3.48654 
-1.24596 3.90846 -2.24407 
-1.18184 3.89421 -2.19985 
-0.831227 2.87653 -0.693976 
-0.445801 1.72252 1.00887 
-0.946893 2.97126 -0.866588 
-0.647476 2.49363 -0.107135 
-0.614245 2.25806 0.222709 
-1.45638 4.75151 -3.46026 
-1.09102 3.99906 -2.30538 
-0.68949 2.35817 0.0586412 
-1.26525 4.77861 -3.42203 
-1.17522 3.67061 -1.8965 
-0.979662 3.24698 -1.25027 
-1.29104 4.48174 -3.03279 
-0.964116 3.33361 -1.36071 
-1.22692 4.44383 -2.95674 
-1.14577 4.34416 -2.79096 
-0.693258 2.49637 -0.128712 
-0.860055 3.00395 -0.876629 
-0.431286 1.58952 1.19344 
-1.00907 3.24098 -1.25368 
-1.04439 3.84394 -2.07851 
-1.22245 4.22627 -2.66236 
-1.17947 3.70892 -1.94969 
-0.992848 3.17105 -1.15328 
-1.15171 4.25889 -2.67859 
-1.11637 3.64927 -1.8448 
-0.93062 3.36828 -1.39425 
-1.05718 3.48191 -1.59656 
-0.34317 1.06194 1.93751 
-1.25713 4.61516 -3.199 
-0.63785 2.13732 0.375881 
-0.514665 1.83466 0.831126 
-1.27959 4.41455 -2.93794 
-0.699732 2.58565 -0.251335 
-0.713792 2.74039 -0.464965 
-0.978805 3.20689 -1.19601 
-0.630167 1.85385 0.757851 
-0.121768 0.310675 3.03279 
-0.466586 1.25899 1.61942 
-1.47214 3.73454 -2.12017 
-1.10029 3.27253 -1.33486 
-1.64781 4.22665 -2.85206 
-0.60207 1.61644 1.08406 
-1.32819 3.4586 -1.68821 
-1.62074 4.55071 -3.26629 
-1.3123 3.7984 -2.1285 
-0.502119 1.49616 1.29 
-1.51658 4.11503 -2.6427 
-0.848561 2.57195 -0.292139 
-1.72142 4.47037 -3.20818 
-1.15371 3.10125 -1.13448 
-0.948272 2.7544 -0.579897 
-1.03278 2.86419 -0.764687 
-0.959175 2.78451 -0.62476 
-1.43516 4.0111 -2.4671 
-0.630659 1.61165 1.0768 
-0.966205 2.61664 -0.406857 
-1.25742 3.75575 -2.04625 
-1.30635 3.68853 -1.98088 
-1.36884 4.12786 -2.58951 
-1.18634 3.5189 -1.70038 
-0.851697 2.25715 0.121235 
-1.28497 3.37154 -1.55298 
-1.00723 2.82994 -0.707434 
-0.560464 1.70112 0.992203 
-0.400543 1.11126 1.84544 
-1.63734 4.15342 -2.75059 
-0.415842 1.09879 1.85463 
-1.50054 4.32684 -2.91423 
-0.794663 2.30005 0.091754 
-0.890448 2.66855 -0.439329 
-1.20361 3.29563 -1.41433 
-0.98612 2.99689 -0.917432 
-0.4512 1.37557 1.47308 
-1.51395 4.24939 -2.81852 
-0.493799 1.41 1.4075 
-1.21477 3.58032 -1.79481 
-0.913903 2.63839 -0.410703 
-1.02221 2.81321 -0.69248 
-0.485191 1.25148 1.62049 
-1.16017 3.04283 -1.06056 
-1.11895 3.22707 -1.28381 
-0.67516 1.97511 0.576693 
-0.594622 1.60437 1.1035 
-1.5022 4.12297 -2.64634 
-1.34523 3.46802 -1.70872 
-0.760638 2.17906 0.267358 
-1.35743 3.70872 -2.03172 
-1.1695 3.41312 -1.55298 
-1.29276 3.48172 -1.70188 
-1.39214 3.97018 -2.39276 
-1.58017 4.39948 -3.04775 
-0.595265 1.70885 0.965499 
-1.01447 2.57414 -0.373745 
-1.32055 3.5471 -1.80122 
-0.713971 2.02517 0.492309 
-0.753609 2.17429 0.276971 
-0.568021 1.55542 1.18062 
-1.25615 3.26505 -1.39895 
-1.15151 2.54505 -0.412198 
-1.67908 3.67033 -2.15221 
-1.64572 3.65784 -2.1176 
-1.74468 4.12487 -2.77302 
-1.70797 3.89929 -2.46261 
-1.67251 3.92311 -2.47351 
-1.92708 4.14516 -2.90056 
-1.80147 4.45627 -3.23061 
-0.88087 2.16228 0.2304 
-1.64164 4.04748 -2.61621 
-1.13359 2.50195 -0.346828 
-0.88438 1.89054 0.577761 
-0.147649 0.346085 2.97298 
-1.23948 2.78999 -0.77601 
-1.72772 4.32183 -3.01677 
-2.07732 4.52601 -3.47372 
-1.23304 2.76153 -0.735847 
-0.656199 1.58978 1.09133 
-0.742668 1.87077 0.682013 
-1.53301 3.46731 -1.80998 
-0.446157 0.967236 2.00844 
-1.37866 3.17946 -1.35409 
-1.74429 4.0697 -2.70188 
-1.53576 3.80945 -2.25134 
-0.766351 1.91403 0.613224 
-1.97711 4.26509 -3.08257 
-1.56479 3.92203 -2.4122 
-1.31248 2.93639 -1.00481 
-1.55221 3.32123 -1.63288 
-1.34642 3.14887 -1.29684 
-1.95299 4.33735 -3.16204 
-1.91991 4.43991 -3.27548 
-1.07627 2.5128 -0.328883 
-1.63709 3.77824 -2.26757 
-0.691425 1.69668 0.934309 
-0.959148 2.14336 0.211173 
-0.976931 2.29205 0.0101476 
-1.06674 2.65037 -0.500427 
-1.06244 2.33531 -0.0930357 
-0.445108 1.01206 1.9514 
-0.565541 1.32738 1.47906 
-0.668056 1.57933 1.09816 
-0.834832 1.96899 0.504486 
-1.57559 3.46533 -1.83113 
-1.6045 3.77705 -2.24792 
-1.14333 2.43409 -0.265007 
-0.78434 1.93766 0.572848 
-2.00166 4.57088 -3.48932 
-1.75669 3.89981 -2.49039 
-1.77911 4.18908 -2.87471 
-1.80916 4.02601 -2.6818 
-1.37225 3.07604 -1.21758 
-1.61537 3.96595 -2.4968 
-1.49952 3.27174 -1.53995 
-0.805352 2.02279 0.45172 
-1.21762 2.7157 -0.66834 
-1.45524 3.6492 -2.00053 
-1.26763 2.8752 -0.901196 
-1.13125 2.69191 -0.589724 
-1.57961 3.6916 -2.12423 
-0.452816 1.03299 1.92021 
-1.95992 4.55189 -3.44168 
-1.4909 3.32084 -1.59827 
-1.36196 2.48851 -0.471801 
-1.44797 2.92038 -1.06548 
-2.01562 4.09965 -2.89821 
-1.95298 3.84605 -2.54187 
-0.657055 1.2128 1.56858 
-1.77217 3.4945 -1.98814 
-0.592936 1.15886 1.67667 
-2.35834 4.39953 -3.49039 
-1.75192 3.60375 -2.11162 
-1.84384 3.48691 -2.02425 
-1.96639 3.91916 -2.64164 
-1.06949 1.99152 0.334437 
-1.93773 3.94027 -2.64975 
-0.841092 1.70838 0.833048 
-1.81699 3.77686 -2.36905 
-2.36159 4.31091 -3.38186 
-1.83452 3.89597 -2.52884 
-1.7234 3.3581 -1.7869 
-1.81429 3.70207 -2.27398 
-2.26181 4.43416 -3.47223 
-1.45107 2.90391 -1.04689 
-1.60875 3.17653 -1.4874 
-1.84465 3.40057 -1.917 
-0.377141 0.71215 2.37139 
-1.40203 2.67453 -0.729438 
-1.76761 3.47508 -1.96101 
-1.9409 3.60161 -2.22912 
-1.25515 2.35705 -0.239799 
-0.388669 0.78998 2.26693 
-1.99469 3.95027 -2.69846 
-1.82585 3.77355 -2.37054 
-1.69652 3.57806 -2.04433 
-1.05015 2.17666 0.11568 
-0.764883 1.60942 1.00502 
-0.14833 0.296383 3.03578 
-0.973059 2.05521 0.316278 
-1.39586 2.86358 -0.96144 
-1.72313 3.25365 -1.65638 
-2.15024 4.42802 -3.39361 
-0.829898 1.66821 0.890301 
-2.35296 4.28347 -3.34213 
-1.13958 2.18929 0.0430462 
-0.41836 0.871394 2.14644 
-0.815892 1.64043 0.933882 
-1.09397 2.17642 0.0881219 
-1.51944 2.96733 -1.16952 
-0.625322 1.243 1.55106 
-1.89404 3.98769 -2.68116 
-1.12807 2.24736 -0.0221107 
-1.36866 2.5421 -0.542939 
-2.20374 4.43619 -3.43783 
-0.183165 0.375519 2.91487 
-1.01562 2.00305 0.354305 
-0.976925 1.92982 0.470305 
-1.72348 3.44621 -1.89692 
-0.393632 0.813984 2.23382 
-1.40492 2.74992 -0.825358 
-1.45588 2.73611 -0.840526 
-0.926625 1.89845 0.541444 
-1.52453 3.05101 -1.27718 
-1.80924 3.80153 -2.39489 
-2.22655 4.19109 -3.14644 
-1.92661 3.58852 -2.2037 
-1.8965 3.3706 -1.91594 
-1.30924 2.37213 -0.29342 
-2.01867 3.21454 -1.81489 
