# .PCD v.5 - Point Cloud Data file format
FIELDS x y z
SIZE 4 4 4
TYPE F F F
WIDTH 1732
HEIGHT 1
POINTS 1732
DATA ascii
-4.95507 0.661384 2.03085 
-4.94736 0.710079 -1.3097 
-4.93431 0.792489 1.75741 
-4.94458 0.727651 -0.69628 
-4.92563 0.847309 3.3755 
-4.93896 0.7631 4.45372 
-4.93059 0.815989 4.1464 
-4.94333 0.735567 4.96673 
-4.95874 0.638225 0.800043 
-4.94791 0.706594 -0.0798059 
-4.95141 0.684496 3.21284 
-4.94485 0.725957 -0.108494 
-4.93257 0.803491 3.73653 
-4.9371 0.774869 0.888852 
-4.92567 0.847063 2.98456 
-4.9332 0.799514 4.32829 
-4.95954 0.633179 2.27805 
-4.94632 0.71663 3.68007 
-4.94898 0.699844 3.49116 
-4.94387 0.732101 1.86422 
-4.94666 0.7145 3.42616 
-4.95156 0.683558 1.57613 
-4.95098 0.687213 2.06748 
-4.93497 0.788332 1.26179 
-4.93686 0.776365 3.48354 
-4.95207 0.68033 -2.50145 
-4.94343 0.734885 0.225379 
-4.95747 0.646292 2.69372 
-4.93885 0.76381 3.08191 
-4.93063 0.815733 3.90774 
-4.96364 0.594226 2.20328 
-4.96592 0.570062 -0.787225 
-4.96265 0.604686 4.05881 
-4.96426 0.587622 -0.681936 
-4.98718 0.345236 -4.30631 
-4.98666 0.350657 -4.70977 
-4.963 0.601031 -0.521714 
-4.96861 0.541661 -4.51628 
-4.97339 0.491128 -2.47032 
-4.961 0.62216 -3.62239 
-4.98543 0.363712 -3.77102 
-4.96736 0.55485 -3.44997 
-4.97306 0.494554 -4.88525 
-4.9607 0.62531 -0.563219 
-4.96881 0.539494 0.941648 
-4.9856 0.361918 -4.88556 
-4.96956 0.531621 -2.67357 
-4.96972 0.529865 0.262611 
-4.96282 0.602949 -4.16074 
-4.98703 0.346839 -4.38505 
-4.9649 0.580875 2.02231 
-4.96312 0.599676 0.0862145 
-4.96557 0.573851 -1.56667 
-4.97187 0.50717 0.302286 
-4.96233 0.608103 -2.01346 
-4.98201 0.39992 -4.9237 
-4.96085 0.623744 -0.0120549 
-4.98316 0.387695 -2.97998 
-4.97185 0.507361 -2.20573 
-4.96145 0.61735 1.86178 
-4.96721 0.556424 0.0953703 
-4.9776 0.446502 -3.07154 
-4.97088 0.517621 -0.752129 
-4.98304 0.388974 2.30522 
-4.9654 0.575559 3.60744 
-4.98368 0.382246 4.24284 
-4.98126 0.407813 2.5042 
-4.98115 0.409006 -0.500046 
-4.9861 0.356593 -1.92953 
-4.98395 0.379373 -0.113682 
-4.96966 0.530504 2.69463 
-4.98786 0.337983 4.27488 
-4.98881 0.327934 3.35108 
-4.98795 0.337105 -3.3343 
-4.97102 0.516151 1.94327 
-4.96981 0.52892 3.81832 
-4.98393 0.379554 4.28678 
-4.98363 0.382723 1.55568 
-4.98942 0.321463 3.89157 
-4.98483 0.37004 -2.16361 
-4.9847 0.371385 -2.78314 
-4.98838 0.332514 -0.271768 
-4.98829 0.333497 2.1749 
-4.98894 0.326626 -4.41069 
-4.97718 0.450978 4.58403 
-4.97098 0.516542 4.97925 
-4.97879 0.433991 0.384075 
-4.98951 0.320595 -3.98099 
-4.96515 0.578231 3.47682 
-4.9686 0.541785 4.86145 
-4.96801 0.547998 4.22544 
-4.98166 0.403575 4.13327 
-4.98412 0.377617 4.8236 
-4.97123 0.513899 2.0809 
-4.9878 0.33868 -3.27021 
-4.98761 0.340636 4.81292 
-4.99343 0.209151 -0.0770593 
-4.9906 0.29912 -4.30113 
-4.99115 0.281625 2.09983 
-4.99253 0.237809 1.67562 
-4.9958 0.133755 -4.382 
-4.99233 0.244047 1.30055 
-4.99064 0.297798 2.60033 
-4.99525 0.150992 -4.6054 
-4.99555 0.141746 -1.56362 
-4.99148 0.271057 1.58742 
-4.99052 0.301659 -1.77602 
-4.99481 0.165096 -2.03787 
-4.99544 0.145061 -3.41182 
-4.99657 0.109045 -3.60378 
-4.99122 0.279402 3.17286 
-4.99406 0.189097 -2.40562 
-4.99304 0.221578 -0.905942 
-4.99342 0.209238 -3.03735 
-4.99031 0.308357 4.44639 
-4.99622 0.120428 -2.34458 
-4.99765 0.0747821 -3.68892 
-4.9939 0.194041 -2.46025 
-4.99173 0.263018 -3.29646 
-4.99535 0.147917 -4.39787 
-4.99132 0.276077 -4.80682 
-4.99117 0.280839 1.2978 
-4.99315 0.218024 -3.02179 
-4.99738 0.0833958 -3.18049 
-4.99582 0.133114 -2.24387 
-4.99256 0.236908 0.85223 
-4.99163 0.266467 -2.34306 
-4.99038 0.305981 2.13065 
-4.9943 0.181394 -0.387433 
-4.99823 0.0561847 3.95871 
-4.99714 0.0911184 0.0975065 
-4.99791 0.0663697 -2.30918 
-4.99561 0.139581 3.80947 
-4.99997 0.000976846 -1.00909 
-4.99956 0.0138446 2.29972 
-4.9997 0.00968631 -4.27702 
-4.99945 0.0174376 -2.61132 
-4.9966 0.108212 1.19495 
-4.99496 0.160382 4.98016 
-4.99737 0.0835395 3.40785 
-4.99877 0.0389957 4.82513 
-4.99407 0.188829 4.80712 
-4.99712 0.0915016 -0.912656 
-4.99553 0.14213 0.59862 
-4.99948 0.0164987 -1.84408 
-4.99072 0.295154 4.59807 
-4.99935 0.0207528 -3.60408 
-4.99735 0.0844114 -1.60482 
-4.99474 0.167309 3.15851 
-4.99879 0.0385166 4.1113 
-4.99994 0.00191584 -0.648671 
-4.99969 0.0100025 2.00461 
-4.99974 0.00813416 4.89319 
-4.99613 0.123273 1.88345 
-4.99522 0.152046 2.64336 
-4.9959 0.130565 -0.675528 
-4.99879 0.0384017 2.88293 
-4.99804 0.062518 4.62218 
-4.99728 0.0864331 0.684988 
-4.99973 0.00868028 0.923337 
-4.99815 0.0587142 -2.05008 
-4.99274 0.230968 4.39177 
-4.99745 -0.0811451 -4.88678 
-4.99126 -0.278109 -3.87753 
-4.99683 -0.100892 -2.4395 
-4.99753 -0.0785868 -3.62484 
-4.99785 -0.0682581 -1.28224 
-4.99634 -0.116318 0.569323 
-4.99757 -0.0772646 0.440535 
-4.99725 -0.0874783 -4.7351 
-4.99381 -0.19706 -1.88223 
-4.99772 -0.0724643 2.57286 
-4.99769 -0.0733937 -0.835139 
-4.99203 -0.253543 -4.10367 
-4.99936 -0.0204567 3.37672 
-4.99824 -0.055994 0.712759 
-4.9996 -0.0126766 -4.23093 
-4.9935 -0.206738 -4.58922 
-4.99238 -0.242399 -3.60347 
-4.99303 -0.221675 -2.71661 
-4.99812 -0.0596732 -1.80959 
-4.9947 -0.168757 -3.91842 
-4.99829 -0.0542597 1.78701 
-4.99453 -0.173921 -2.9461 
-4.99784 -0.0687563 2.26157 
-4.9971 -0.0923457 1.71834 
-4.99919 -0.0257456 0.426802 
-4.99744 -0.0814517 -1.67714 
-4.99957 -0.0135581 2.88049 
-4.99593 -0.129617 -4.59044 
-4.99908 -0.029147 -2.82128 
-4.99939 -0.0192494 -4.62676 
-4.99417 -0.185457 -2.80633 
-4.99771 -0.0727805 0.863521 
-4.99691 -0.0982957 -0.271462 
-4.99411 -0.187479 3.22016 
-4.99246 -0.240071 0.109409 
-4.99239 -0.242246 2.0217 
-4.99545 -0.144832 0.535142 
-4.99686 -0.099867 1.96829 
-4.99789 -0.0671946 4.78027 
-4.99046 -0.303624 1.18244 
-4.99386 -0.19546 0.388653 
-4.99593 -0.129588 1.0036 
-4.99655 -0.10964 2.50511 
-4.99417 -0.185572 -0.799127 
-4.99058 -0.299734 2.64183 
-4.99278 -0.229685 3.38588 
-4.99165 -0.26574 0.998718 
-4.99743 -0.0817199 4.14243 
-4.99143 -0.272744 1.37165 
-4.99562 -0.139352 2.62535 
-4.99162 -0.266516 1.29231 
-4.99431 -0.181079 0.871151 
-4.99096 -0.287671 2.67937 
-4.9916 -0.267148 -2.01163 
-4.99655 -0.10964 4.46745 
-4.99574 -0.135673 2.57683 
-4.99337 -0.210944 4.42503 
-4.99092 -0.288792 4.07651 
-4.99212 -0.25085 -2.70592 
-4.99075 -0.294283 3.95474 
-4.99315 -0.217881 3.50368 
-4.99278 -0.229848 -2.25822 
-4.99287 -0.226811 -1.55538 
-4.99158 -0.268001 0.684683 
-4.99508 -0.156617 1.56392 
-4.99364 -0.202301 -0.781121 
-4.96905 -0.537034 -3.22352 
-4.97918 -0.429783 0.239112 
-4.97888 -0.433028 -2.73492 
-4.98524 -0.365727 -3.93307 
-4.97876 -0.43424 -1.14185 
-4.98895 -0.326493 -2.57653 
-4.97675 -0.455513 -4.01456 
-4.97103 -0.516095 -4.0112 
-4.98136 -0.406717 -4.92065 
-4.97682 -0.454778 -1.29505 
-4.9777 -0.44553 -2.49657 
-4.98769 -0.339835 -1.64876 
-4.98094 -0.411183 -2.14835 
-4.97871 -0.434822 -2.73278 
-4.98646 -0.352862 -3.7701 
-4.98162 -0.404063 -2.12851 
-4.97996 -0.421624 -2.64733 
-4.97947 -0.426729 1.03107 
-4.98679 -0.349293 3.04498 
-4.9815 -0.405285 -1.01367 
-4.98703 -0.346754 -2.93542 
-4.98557 -0.362196 -2.81304 
-4.96473 -0.5827 -3.63979 
-4.98354 -0.383726 -4.32005 
-4.98232 -0.396639 -2.18619 
-4.97431 -0.481357 -3.8171 
-4.98358 -0.383249 -0.462813 
-4.9732 -0.493048 -2.20969 
-4.98941 -0.321578 0.779595 
-4.98938 -0.321951 -2.67388 
-4.97594 -0.464092 -0.487533 
-4.97703 -0.452526 -1.41499 
-4.98104 -0.410181 1.75191 
-4.97542 -0.469656 0.949889 
-4.97565 -0.467194 3.41823 
-4.9754 -0.469857 4.33439 
-4.96829 -0.545022 -0.749992 
-4.96761 -0.552275 -1.35914 
-4.97027 -0.524064 -0.688955 
-4.96596 -0.56973 -1.05091 
-4.97273 -0.49801 2.34031 
-4.96523 -0.577393 -0.311747 
-4.98081 -0.412586 2.32719 
-4.9758 -0.465543 1.46046 
-4.98375 -0.381474 3.65902 
-4.97153 -0.51077 3.74874 
-4.96247 -0.606597 0.92822 
-4.97339 -0.491101 0.623341 
-4.9686 -0.541777 -0.970031 
-4.9612 -0.620025 -0.187841 
-4.97736 -0.449109 1.00665 
-4.9842 -0.37675 4.58922 
-4.97073 -0.519197 2.34794 
-4.96565 -0.572984 -2.06259 
-4.96247 -0.606559 4.71313 
-4.96848 -0.543075 1.58681 
-4.96608 -0.568375 0.496078 
-4.9785 -0.436989 2.03269 
-4.9788 -0.433897 2.75811 
-4.9655 -0.574559 2.98669 
-4.96993 -0.527672 3.7286 
-4.9649 -0.580925 -1.74917 
-4.96517 -0.578052 0.118565 
-4.98074 -0.413292 4.15036 
-4.96312 -0.599687 2.11417 
-4.97065 -0.520056 0.98529 
-4.93211 -0.806362 -1.17695 
-4.9519 -0.681402 -2.48375 
-4.95811 -0.642242 -1.94845 
-4.94134 -0.748114 -4.18516 
-4.95284 -0.675513 -4.86724 
-4.95426 -0.666546 -0.678885 
-4.9596 -0.632812 2.60308 
-4.94039 -0.754088 0.669423 
-4.9588 -0.637887 -0.22782 
-4.95467 -0.663943 -2.434 
-4.94774 -0.707685 1.76199 
-4.92943 -0.823319 -3.13776 
-4.92854 -0.828943 -3.10755 
-4.94267 -0.739678 -2.92261 
-4.95492 -0.66239 -2.92047 
-4.95705 -0.648936 -2.22312 
-4.95451 -0.664956 -3.74111 
-4.94423 -0.72985 -4.24528 
-4.9487 -0.701654 1.06647 
-4.94702 -0.712249 -0.887021 
-4.94929 -0.697876 1.87918 
-4.9319 -0.807687 -1.79678 
-4.9489 -0.700338 -2.3928 
-4.95535 -0.659673 1.93625 
-4.94211 -0.743219 -4.80132 
-4.94613 -0.717835 -2.64916 
-4.95142 -0.68446 -2.58873 
-4.95308 -0.673969 -2.13065 
-4.93549 -0.785058 -4.30052 
-4.94255 -0.740473 0.72161 
-4.93432 -0.792453 -4.63256 
-4.9364 -0.779302 -1.49007 
-4.94758 -0.708727 -4.41282 
-4.91391 -0.921313 0.527818 
-4.91886 -0.89004 2.11448 
-4.94576 -0.720221 3.97519 
-4.91699 -0.901828 2.28721 
-4.93198 -0.807214 0.411237 
-4.91913 -0.888346 -0.80462 
-4.92468 -0.853266 1.63045 
-4.95076 -0.688645 4.59929 
-4.92033 -0.880743 -0.969115 
-4.91557 -0.910794 -3.96451 
-4.91811 -0.894755 1.73971 
-4.92967 -0.821785 -0.298624 
-4.93268 -0.802792 4.73327 
-4.94138 -0.747849 1.14856 
-4.94596 -0.718952 2.55516 
-4.95188 -0.681572 4.26115 
-4.9336 -0.796998 4.46318 
-4.92264 -0.8662 -0.75457 
-4.95049 -0.690359 4.81567 
-4.9127 -0.928897 2.89819 
-4.91503 -0.914231 -3.97 
-4.92414 -0.856703 -0.606555 
-4.92313 -0.863075 2.42759 
-4.94466 -0.727123 1.93655 
-4.92397 -0.857754 4.00143 
-4.93489 -0.788827 2.2924 
-4.9229 -0.864496 -1.9335 
-4.93498 -0.788249 3.77438 
-4.93665 -0.777683 3.27937 
-4.91417 -0.919666 0.751213 
-4.94566 -0.720846 4.50377 
-4.92965 -0.821936 4.53307 
-4.93587 -0.782644 1.6213 
-4.88678 -1.04722 -1.14124 
-4.90748 -0.954607 0.44969 
-4.89893 -0.992842 -0.692312 
-4.89705 -1.00125 -1.47176 
-4.85481 -1.19025 -3.31324 
-4.90747 -0.954664 0.46556 
-4.89574 -1.00715 -4.40123 
-4.8887 -1.03864 -4.90112 
-4.88635 -1.04912 -3.67092 
-4.90369 -0.97155 -2.44682 
-4.87449 -1.10221 -4.98321 
-4.89988 -0.988623 -2.13034 
-4.88449 -1.05745 0.651722 
-4.86653 -1.1378 -3.21192 
-4.88782 -1.04257 -2.79015 
-4.85434 -1.19233 -4.71801 
-4.87155 -1.11533 -1.97501 
-4.90457 -0.967621 -4.85015 
-4.89144 -1.02635 -4.36399 
-4.88095 -1.0733 -2.99646 
-4.89544 -1.00846 0.21836 
-4.90387 -0.970745 3.13868 
-4.89058 -1.0302 0.0544758 
-4.90864 -0.949397 -2.02322 
-4.89993 -0.988371 -3.48537 
-4.86805 -1.13102 -3.76553 
-4.88274 -1.0653 -0.385907 
-4.89962 -0.989774 -0.187231 
-4.90139 -0.981841 0.321512 
-4.90784 -0.953008 1.52669 
-4.88573 -1.05192 -1.17359 
-4.90428 -0.968902 -1.00269 
-4.87352 -1.10652 -2.9046 
-4.8604 -1.16521 -1.82241 
-4.87167 -1.11481 1.58956 
-4.88964 -1.0344 4.73449 
-4.87216 -1.11264 3.9819 
-4.85004 -1.21158 3.21772 
-4.85793 -1.17628 -2.01468 
-4.86272 -1.15484 0.744194 
-4.84528 -1.23288 -0.037385 
-4.86015 -1.16634 2.5219 
-4.87774 -1.08765 1.35487 
-4.84865 -1.21779 -2.70165 
-4.8466 -1.22695 1.25813 
-4.87729 -1.08969 1.05579 
-4.86826 -1.13007 1.71712 
-4.87217 -1.11259 -0.265969 
-4.85804 -1.17579 0.131077 
-4.86141 -1.16071 3.21345 
-4.88821 -1.0408 4.81506 
-4.8681 -1.13079 0.72985 
-4.85896 -1.17168 -1.69546 
-4.85231 -1.20141 2.92627 
-4.84959 -1.21358 1.00665 
-4.84734 -1.22364 -1.87033 
-4.85078 -1.20825 4.28892 
-4.84556 -1.23162 -3.42341 
-4.85139 -1.20553 -0.35142 
-4.86892 -1.1271 -1.0506 
-4.85982 -1.16781 4.63164 
-4.84774 -1.22185 0.584888 
-4.88083 -1.07384 1.43727 
-4.8706 -1.11961 0.571764 
-4.89245 -1.02186 4.23063 
-4.85238 -1.20113 -0.568712 
-4.833 -1.27758 0.0892668 
-4.80546 -1.37237 -3.43165 
-4.80848 -1.36198 -0.612659 
-4.80993 -1.35699 -1.43757 
-4.80049 -1.38949 -4.39055 
-4.80251 -1.38252 -1.67562 
-4.78918 -1.4284 -2.43187 
-4.8304 -1.28651 -4.95483 
-4.78497 -1.44289 -2.73949 
-4.8373 -1.26277 -3.21772 
-4.83685 -1.26432 1.3506 
-4.83453 -1.27231 -1.46657 
-4.83568 -1.26837 -1.67928 
-4.83769 -1.26143 -0.40025 
-4.79765 -1.39925 -3.77834 
-4.76979 -1.49514 -4.54558 
-4.83731 -1.26275 -0.312662 
-4.8318 -1.28171 -2.24754 
-4.82034 -1.32116 2.38243 
-4.80188 -1.38469 -0.258644 
-4.81468 -1.34064 -0.44206 
-4.81635 -1.33489 -0.223548 
-4.79713 -1.40104 -0.839107 
-4.83873 -1.25787 2.10959 
-4.82938 -1.29003 -2.03726 
-4.8377 -1.2614 -0.0498977 
-4.81122 -1.35256 0.171972 
-4.77668 -1.47142 -3.71242 
-4.83429 -1.27316 -0.703604 
-4.8163 -1.33505 -1.73269 
-4.82187 -1.31588 -4.39604 
-4.7986 -1.39598 -1.35762 
-4.8429 -1.24351 -1.8981 
-4.76215 -1.52146 1.67592 
-4.76033 -1.52772 -2.96564 
-4.75577 -1.54342 -4.7 
-4.7957 -1.40595 1.48701 
-4.81859 -1.32719 3.6639 
-4.78623 -1.43856 0.429548 
-4.80471 -1.37494 1.37654 
-4.77232 -1.48644 2.29423 
-4.76237 -1.52067 -0.663014 
-4.7608 -1.52608 2.90338 
-4.80435 -1.37618 1.17725 
-4.78631 -1.4383 -0.0450144 
-4.81088 -1.3537 4.65484 
-4.79552 -1.4066 1.08844 
-4.79331 -1.4142 1.71224 
-4.79383 -1.41241 2.55638 
-4.76034 -1.52766 -0.477462 
-4.81382 -1.3436 3.8641 
-4.79801 -1.39802 4.18485 
-4.77443 -1.47917 0.181128 
-4.76636 -1.50696 2.71569 
-4.81561 -1.33743 2.62261 
-4.75585 -1.54313 2.97601 
-4.79883 -1.39519 3.91049 
-4.8265 -1.29996 3.5052 
-4.77505 -1.47704 0.644093 
-4.75607 -1.54236 -4.12412 
-4.77529 -1.4762 2.91101 
-4.78884 -1.42958 3.72829 
-4.76124 -1.52459 -1.50899 
-4.83326 -1.27668 4.68078 
-4.79257 -1.41672 2.24815 
-4.75768 -1.53685 2.10379 
-4.72843 -1.61966 -2.33909 
-4.71799 -1.64867 -4.57183 
-4.75152 -1.55555 -2.38395 
-4.73046 -1.61404 -4.19492 
-4.69019 -1.7259 -2.80206 
-4.7522 -1.55365 -0.145115 
-4.71407 -1.65955 -2.94336 
-4.74467 -1.57457 3.91049 
-4.75171 -1.55502 2.45781 
-4.68901 -1.72915 -3.4817 
-4.75339 -1.55034 4.55168 
-4.72577 -1.62705 0.739311 
-4.69525 -1.71184 -3.93796 
-4.75465 -1.54685 -4.5584 
-4.72631 -1.62556 -1.05548 
-4.71327 -1.66178 -2.51854 
-4.74938 -1.56147 4.39726 
-4.68663 -1.73577 -3.76522 
-4.71316 -1.66209 -0.182043 
-4.7489 -1.56282 -1.42109 
-4.66306 -1.80124 -3.84304 
-4.6921 -1.72057 -1.69423 
-4.69478 -1.71314 -3.75027 
-4.68051 -1.75278 -2.97967 
-4.74264 -1.5802 0.60625 
-4.74479 -1.57423 -2.42241 
-4.70686 -1.67957 -4.17417 
-4.72222 -1.63693 -0.132908 
-4.72349 -1.6334 0.785699 
-4.74288 -1.57952 3.40846 
-4.71345 -1.66128 -3.89096 
-4.6903 -1.72558 -1.86727 
-4.68984 -1.72685 -2.86859 
-4.69497 -1.71262 2.66015 
-4.68666 -1.73569 2.68853 
-4.68979 -1.72701 1.53706 
-4.6858 -1.73808 -1.45894 
-4.66666 -1.79125 0.331889 
-4.66467 -1.79677 -1.07379 
-4.70533 -1.68384 2.82983 
-4.72775 -1.62156 4.72686 
-4.70834 -1.67547 2.03513 
-4.65492 -1.82386 -2.43095 
-4.65991 -1.80999 0.28489 
-4.6922 -1.72031 -0.50737 
-4.6859 -1.73779 4.80529 
-4.70827 -1.67567 2.80938 
-4.70565 -1.68294 1.99606 
-4.67326 -1.77292 -1.79342 
-4.67208 -1.77618 -1.50441 
-4.65225 -1.83127 -4.18088 
-4.6519 -1.83225 4.89746 
-4.68419 -1.74257 0.880306 
-4.68478 -1.74091 1.88101 
-4.68267 -1.74676 2.96655 
-4.68545 -1.73906 -0.710318 
-4.68174 -1.74937 4.51598 
-4.74503 -1.57357 4.04233 
-4.66107 -1.80677 0.359966 
-4.71328 -1.66174 1.37745 
-4.69546 -1.71124 2.52586 
-4.69672 -1.70776 1.91397 
-4.669 -1.78473 -1.90786 
-4.66982 -1.78248 0.62151 
-4.677 -1.76253 1.52913 
-4.71461 -1.65804 4.64568 
-4.55956 -2.04703 -4.63958 
-4.55915 -2.04799 -4.6881 
-4.64531 -1.84887 3.06269 
-4.63474 -1.8733 -2.6162 
-4.60829 -1.93442 -1.25019 
-4.61195 -1.92596 -0.545518 
-4.62679 -1.89169 -2.74621 
-4.58454 -1.98931 -2.10135 
-4.60893 -1.93295 -4.29838 
-4.61796 -1.91209 -0.731376 
-4.61526 -1.91833 0.545518 
-4.63707 -1.86791 -3.00775 
-4.63935 -1.86265 -0.522324 
-4.64706 -1.84483 3.22138 
-4.59855 -1.95694 -3.40083 
-4.59448 -1.96634 -4.12687 
-4.64172 -1.85718 -3.49391 
-4.64441 -1.85095 3.60012 
-4.58972 -1.97733 -3.80764 
-4.6436 -1.85283 2.94916 
-4.54697 -2.07613 -4.46593 
-4.62082 -1.90548 -2.24387 
-4.61116 -1.9278 0.624866 
-4.6029 -1.94688 -2.65435 
-4.62687 -1.8915 -0.0257883 
-4.60007 -1.95341 -4.17295 
-4.5941 -1.96721 -4.54649 
-4.56545 -2.03342 -4.00388 
-4.5892 -1.97854 -2.58995 
-4.63691 -1.86828 2.60399 
-4.55248 -2.0634 -3.76675 
-4.62466 -1.8966 -2.43034 
-4.62561 -1.89441 -1.97562 
-4.55263 -2.06304 0.219275 
-4.55963 -2.04688 0.855587 
-4.53529 -2.10312 2.24052 
-4.53521 -2.1033 -2.34336 
-4.55737 -2.0521 -0.835444 
-4.55383 -2.06028 4.6942 
-4.53837 -2.09599 1.57582 
-4.61885 -1.91001 3.15302 
-4.58021 -1.99931 -0.186926 
-4.5289 -2.11788 -4.21903 
-4.58695 -1.98374 0.909299 
-4.52725 -2.12171 0.462508 
-4.53192 -2.11092 3.83114 
-4.62013 -1.90706 4.18332 
-4.52549 -2.12577 4.9588 
-4.6025 -1.94781 1.59932 
-4.54057 -2.09093 2.63482 
-4.59972 -1.95424 1.29658 
-4.53376 -2.10666 4.70611 
-4.56212 -2.04111 3.22291 
-4.58603 -1.98587 1.35334 
-4.57016 -2.02253 -1.20502 
-4.59675 -1.96109 4.07071 
-4.53279 -2.1089 4.80895 
-4.54443 -2.08199 1.45466 
-4.52575 -2.12516 2.72607 
-4.58527 -1.98763 2.575 
-4.54719 -2.07562 3.55831 
-4.55841 -2.04968 4.8941 
-4.60204 -1.94887 1.99362 
-4.59434 -1.96667 2.97021 
-4.56416 -2.03641 4.10642 
-4.60332 -1.94591 1.53401 
-4.48118 -2.21321 -1.49464 
-4.51195 -2.15281 1.29292 
-4.49471 -2.18665 1.40004 
-4.47313 -2.229 -3.71944 
-4.46846 -2.23816 -0.979491 
-4.43874 -2.2965 -4.86145 
-4.40301 -2.36662 -4.01059 
-4.4884 -2.19902 -1.60756 
-4.49435 -2.18735 -1.05304 
-4.43115 -2.3114 -2.71203 
-4.48247 -2.21067 -1.13117 
-4.48872 -2.1984 -2.00339 
-4.48761 -2.20058 -2.08976 
-4.50368 -2.16905 1.81234 
-4.46034 -2.2541 -4.59563 
-4.48849 -2.19886 -1.20808 
-4.51764 -2.14165 -0.9859 
-4.49308 -2.18984 2.7105 
-4.43247 -2.3088 -1.82943 
-4.48524 -2.20523 -0.71215 
-4.45055 -2.27331 -2.85302 
-4.50391 -2.16859 1.52669 
-4.4947 -2.18667 -1.06983 
-4.49715 -2.18185 1.82058 
-4.5151 -2.14664 -3.95932 
-4.47214 -2.23094 -4.58983 
-4.50939 -2.15784 -2.78619 
-4.52094 -2.13517 -2.72485 
-4.51424 -2.14831 3.27235 
-4.4156 -2.3419 -3.40938 
-4.43064 -2.31239 -4.43419 
-4.49484 -2.1864 0.802789 
-4.44684 -2.28059 -3.63704 
-4.43355 -2.30668 3.93735 
-4.48629 -2.20318 4.89257 
-4.40422 -2.36424 1.01062 
-4.39484 -2.38265 4.26511 
-4.45961 -2.25553 2.16544 
-4.4182 -2.3368 4.70031 
-4.50406 -2.16829 4.10428 
-4.47463 -2.22605 1.68264 
-4.51442 -2.14797 4.86847 
-4.38554 -2.4009 3.66482 
-4.42635 -2.32082 4.65972 
-4.45949 -2.25576 2.21213 
-4.39264 -2.38696 4.95209 
-4.44986 -2.27466 1.03046 
-4.40118 -2.37021 2.65557 
-4.48384 -2.20797 4.75341 
-4.4198 -2.33367 1.62801 
-4.40668 -2.35942 1.0857 
-4.49912 -2.17798 3.92056 
-4.45604 -2.26254 0.517136 
-4.38342 -2.40507 -3.88302 
-4.46777 -2.23952 1.18976 
-4.41264 -2.34772 -0.431379 
-4.39915 -2.37419 3.98373 
-4.38721 -2.39763 -3.62972 
-4.42151 -2.33031 0.55681 
-4.38535 -2.40127 -0.993835 
-4.4075 -2.35781 2.17643 
-4.39821 -2.37603 4.49858 
-4.39979 -2.37293 1.89169 
-4.45252 -2.26945 2.69921 
-4.39192 -2.38838 -2.89178 
-4.44667 -2.28093 0.970946 
-4.31235 -2.52575 -2.61162 
-4.33044 -2.49517 -0.462508 
-4.31182 -2.52665 -1.03931 
-4.36357 -2.43914 2.23044 
-4.30726 -2.53436 -0.365764 
-4.29599 -2.55341 -4.60082 
-4.38019 -2.41105 -2.98547 
-4.35247 -2.45791 -0.0233464 
-4.30572 -2.53697 -3.12372 
-4.3221 -2.50926 0.859249 
-4.36953 -2.42907 -1.20655 
-4.36908 -2.42982 -2.70989 
-4.33459 -2.48815 -2.29362 
-4.35725 -2.44984 0.971557 
-4.3682 -2.43131 -2.25608 
-4.33391 -2.4893 -3.20429 
-4.30952 -2.53053 -2.44072 
-4.28373 -2.57415 -1.35273 
-4.28762 -2.56757 -2.24113 
-4.34869 -2.4643 -4.56664 
-4.33125 -2.4938 1.52516 
-4.35514 -2.4534 1.04541 
-4.35221 -2.45835 2.69463 
-4.30171 -2.54374 -4.65728 
-4.26773 -2.6012 -3.01843 
-4.28167 -2.57762 -4.88525 
-4.32012 -2.51262 0.704215 
-4.36308 -2.43997 0.341044 
-4.34617 -2.46856 2.45659 
-4.3114 -2.52735 -3.51222 
-4.28334 -2.5748 -3.6697 
-4.30795 -2.53319 -2.70013 
-4.34893 -2.4639 1.0036 
-4.26571 -2.60461 1.01154 
-4.22861 -2.66734 2.893 
-4.268 -2.60075 0.109409 
-4.26782 -2.60105 2.6043 
-4.27821 -2.58347 -1.18885 
-4.29676 -2.55211 1.10401 
-4.27534 -2.58834 -1.52638 
-4.24884 -2.63314 3.20399 
-4.27109 -2.59553 1.85415 
-4.27298 -2.59232 4.78576 
-4.22435 -2.67456 1.39271 
-4.2532 -2.62577 -1.068 
-4.30496 -2.53825 2.50877 
-4.30485 -2.53843 2.93603 
-4.2644 -2.60683 3.72951 
-4.32587 -2.50288 2.96136 
-4.2477 -2.63507 2.5457 
-4.34385 -2.47249 3.5461 
-4.24814 -2.63433 0.337993 
-4.25799 -2.61766 2.62413 
-4.23638 -2.65421 0.307779 
-4.34205 -2.47553 3.69716 
-4.22289 -2.67702 3.90622 
-4.35046 -2.4613 4.50652 
-4.29036 -2.56294 0.0218205 
-4.23176 -2.66201 -2.07511 
-4.22383 -2.67543 0.0959806 
-4.23883 -2.65007 3.07794 
-4.24228 -2.64423 -3.03308 
-4.25514 -2.62249 -1.90573 
-4.25265 -2.62669 -0.813776 
-4.226 -2.67177 -3.83145 
-4.2433 -2.64252 -0.839107 
-4.11771 -2.83206 -3.40938 
-4.15142 -2.78247 -4.67742 
-4.21722 -2.68564 0.854366 
-4.11119 -2.84165 -4.13755 
-4.08516 -2.87996 -4.37986 
-4.18643 -2.73094 -0.410626 
-4.20219 -2.70776 -4.67406 
-4.10859 -2.84548 -3.18049 
-4.13451 -2.80735 -3.42891 
-4.15958 -2.77045 1.02985 
-4.21723 -2.68562 -2.95526 
-4.20474 -2.70401 -3.65993 
-4.21638 -2.68687 -1.7217 
-4.20865 -2.69825 -3.0636 
-4.1902 -2.7254 -0.874203 
-4.22034 -2.68105 2.86523 
-4.20096 -2.70956 0.811335 
-4.12564 -2.8204 -0.464339 
-4.17826 -2.74296 -4.38932 
-4.17385 -2.74945 -0.184484 
-4.14952 -2.78525 -2.86645 
-4.17739 -2.74425 -1.66799 
-4.16971 -2.75554 -1.11164 
-4.19752 -2.71462 -0.908078 
-4.07573 -2.89383 -4.7528 
-4.20123 -2.70916 -3.21284 
-4.16812 -2.75788 0.261086 
-4.21384 -2.69061 2.9104 
-4.18767 -2.72912 0.172277 
-4.20538 -2.70306 3.10877 
-4.14225 -2.79595 0.335856 
-4.15994 -2.76992 -2.97388 
-4.12425 -2.82244 -3.59188 
-4.14583 -2.79069 4.90722 
-4.16484 -2.76272 3.65932 
-4.14493 -2.79201 1.6512 
-4.09666 -2.86304 2.04886 
-4.09244 -2.86925 4.27366 
-4.19168 -2.72322 4.51384 
-4.16174 -2.76727 1.94601 
-4.10008 -2.85801 0.810419 
-4.18192 -2.73758 4.51933 
-4.0663 -2.90771 -0.305643 
-4.07812 -2.89032 0.461897 
-4.04893 -2.93327 -2.84234 
-4.20298 -2.70659 4.1467 
-4.14222 -2.796 4.74426 
-4.05786 -2.92013 1.592 
-4.06941 -2.90314 1.38539 
-4.04655 -2.93677 -3.1109 
-4.07078 -2.90112 -1.96158 
-4.10091 -2.85679 1.01611 
-4.16104 -2.7683 2.50816 
-4.15407 -2.77857 4.8117 
-4.15908 -2.77118 4.77538 
-4.0761 -2.89329 4.32188 
-4.14738 -2.7884 1.20441 
-4.08421 -2.88135 -0.0816369 
-4.10386 -2.85244 0.604419 
-4.09547 -2.86479 -0.121006 
-4.07279 -2.89816 2.93512 
-4.13834 -2.8017 3.63552 
-4.18212 -2.73728 2.85669 
-4.06332 -2.91209 3.81588 
-4.08914 -2.8741 1.45161 
-4.15494 -2.77727 3.55159 
-3.92772 -3.09023 -3.86837 
-3.95525 -3.05474 0.146642 
-3.95354 -3.05695 -4.84832 
-4.00261 -2.99369 0.657521 
-4.01444 -2.97843 -4.99939 
-3.98288 -3.01913 -3.08374 
-4.0167 -2.97553 2.71508 
-4.0352 -2.95167 -3.49971 
-3.92842 -3.08933 -3.17011 
-3.90235 -3.12293 -2.75903 
-3.99207 -3.00728 -1.10157 
-3.96688 -3.03974 -3.18018 
-4.01261 -2.9808 -0.993225 
-4.00167 -2.99489 -1.0268 
-4.00994 -2.98424 -1.27064 
-3.87975 -3.15207 -4.30174 
-3.95913 -3.04974 -2.45506 
-3.99881 -2.99858 -3.90011 
-3.97809 -3.02529 1.07685 
-4.01917 -2.97233 -1.09058 
-3.95937 -3.04943 -1.17695 
-4.00526 -2.99027 -2.17551 
-3.9499 -3.06163 -3.62087 
-3.86869 -3.16633 -4.73754 
-3.93912 -3.07553 -2.06687 
-3.94717 -3.06516 -0.576952 
-3.91655 -3.10463 -3.82992 
-3.9914 -3.00813 -3.95291 
-3.98139 -3.02104 0.783563 
-3.9703 -3.03534 -3.45546 
-4.0055 -2.98996 1.90481 
-3.89822 -3.12826 -3.60622 
-3.89221 -3.13602 -4.86663 
-3.85748 -3.18078 -0.0315866 
-3.93231 -3.08431 3.8699 
-3.88451 -3.14594 2.31285 
-3.90153 -3.124 3.08191 
-3.98597 -3.01513 3.7167 
-3.90327 -3.12175 0.807062 
-3.91433 -3.10749 4.4882 
-3.8541 -3.18514 2.66289 
-3.95739 -3.05198 1.08753 
-3.93735 -3.07781 1.32527 
-3.88829 -3.14106 -2.84448 
-3.90821 -3.11538 4.37559 
-3.86449 -3.17174 -1.32252 
-3.96343 -3.04419 4.87121 
-3.94695 -3.06544 4.07254 
-3.87787 -3.1545 3.5406 
-3.96397 -3.04349 0.962401 
-3.92649 -3.09182 3.48933 
-4.01942 -2.97202 4.62645 
-3.92054 -3.09949 4.80834 
-3.9022 -3.12313 3.76278 
-3.93248 -3.0841 3.43226 
-3.98917 -3.01101 4.12259 
-3.88492 -3.14542 4.34416 
-3.90501 -3.11951 0.58092 
-3.89977 -3.12626 -0.113682 
-3.95063 -3.0607 0.837581 
-3.89099 -3.13759 -2.80877 
-3.89265 -3.13545 4.50468 
-3.92863 -3.08906 2.53288 
-3.85707 -3.18131 3.55464 
-3.89288 -3.13514 -0.801263 
-3.89787 -3.12872 -2.22587 
-3.75006 -3.30339 -3.89035 
-3.80293 -3.24342 2.28782 
-3.78885 -3.25939 -3.32301 
-3.81397 -3.2309 -1.81997 
-3.83026 -3.21242 3.37062 
-3.67521 -3.38829 -4.83184 
-3.83099 -3.21159 -1.2801 
-3.76995 -3.28083 -0.315409 
-3.80876 -3.23681 -2.11448 
-3.78135 -3.2679 0.995972 
-3.81888 -3.22533 2.86523 
-3.84599 -3.19458 4.00235 
-3.83038 -3.21229 1.7687 
-3.84887 -3.19131 -0.199743 
-3.80609 -3.23984 -1.54683 
-3.8128 -3.23223 2.13218 
-3.72559 -3.33115 -3.75759 
-3.78331 -3.26567 -1.60665 
-3.79249 -3.25526 -0.665456 
-3.81691 -3.22756 2.66655 
-3.75516 -3.2976 -2.54357 
-3.7963 -3.25094 -4.44578 
-3.75286 -3.30021 -2.09281 
-3.80682 -3.23901 -4.91882 
-3.73424 -3.32133 -2.60552 
-3.72468 -3.33218 -3.95383 
-3.81083 -3.23446 0.441145 
-3.82076 -3.2232 -1.93655 
-3.79397 -3.25358 -4.335 
-3.80188 -3.24461 -4.83612 
-3.77774 -3.272 0.268106 
-3.77169 -3.27886 -1.54561 
-3.73931 -3.31558 -3.67519 
-3.64529 -3.42223 3.87112 
-3.77296 -3.27741 3.90591 
-3.69804 -3.3624 1.11377 
-3.68321 -3.37921 1.16108 
-3.77429 -3.2759 1.45558 
-3.73218 -3.32367 0.756401 
-3.69616 -3.36453 4.50072 
-3.64591 -3.42153 0.655995 
-3.73309 -3.32264 -0.454268 
-3.66807 -3.39639 3.27326 
-3.71485 -3.34333 1.05457 
-3.76851 -3.28246 4.12961 
-3.71986 -3.33765 2.39097 
-3.66878 -3.39558 -0.706046 
-3.65754 -3.40833 -1.7156 
-3.73042 -3.32567 1.7983 
-3.69229 -3.36892 -0.381939 
-3.65215 -3.41445 1.9982 
-3.71535 -3.34276 1.88772 
-3.70687 -3.35238 2.92138 
-3.73752 -3.31762 2.86401 
-3.66907 -3.39525 -0.452437 
-3.72029 -3.33716 2.48222 
-3.79563 -3.2517 3.33399 
-3.66823 -3.39621 0.610523 
-3.69379 -3.36722 -0.0938444 
-3.64872 -3.41834 -3.57051 
-3.66558 -3.39922 -1.74581 
-3.6854 -3.37674 -0.875423 
-3.78783 -3.26055 4.7293 
-3.72931 -3.32693 3.72219 
-3.69297 -3.36815 2.43339 
-3.77679 -3.27307 1.63717 
-3.61186 -3.45572 1.14093 
-3.64351 -3.42407 2.35771 
-3.53281 -3.53477 -2.11386 
-3.63346 -3.43412 -3.49544 
-3.59036 -3.47722 -4.61455 
-3.55769 -3.50989 1.04144 
-3.47312 -3.59446 -3.52107 
-3.46601 -3.60156 -4.14762 
-3.60023 -3.46735 -1.48213 
-3.46528 -3.6023 -4.98413 
-3.56528 -3.5023 -3.9639 
-3.63351 -3.43407 -2.30064 
-3.62387 -3.44371 1.83523 
-3.58034 -3.48724 -3.0874 
-3.60216 -3.46542 -4.35026 
-3.56436 -3.50322 0.954161 
-3.55535 -3.51222 -1.86483 
-3.53896 -3.52861 -2.46483 
-3.64213 -3.42545 -1.26637 
-3.60842 -3.45916 -1.86941 
-3.50574 -3.56184 -4.55718 
-3.52151 -3.54607 -1.91702 
-3.61624 -3.45134 2.24052 
-3.50755 -3.56003 -2.36229 
-3.59739 -3.47019 -4.11985 
-3.58704 -3.48054 2.11844 
-3.62049 -3.44708 -4.40825 
-3.63887 -3.42871 -4.99695 
-3.6389 -3.42868 1.93869 
-3.48029 -3.58729 -4.25199 
-3.58065 -3.48693 0.749077 
-3.57863 -3.48895 -0.568407 
-3.59722 -3.47036 -2.16178 
-3.46296 -3.60461 -1.79342 
-3.47467 -3.59291 1.3451 
-3.50029 -3.56729 4.42228 
-3.54572 -3.52186 0.843074 
-3.54448 -3.5231 2.87896 
-3.44405 -3.62353 4.87945 
-3.42983 -3.63775 -0.800958 
-3.43029 -3.63729 1.28407 
-3.51796 -3.54961 1.06647 
-3.61389 -3.45369 4.70397 
-3.50366 -3.56392 2.08976 
-3.51063 -3.55695 2.05222 
-3.55598 -3.51159 3.60622 
-3.60617 -3.46141 4.46471 
-3.56413 -3.50345 3.07794 
-3.51401 -3.55357 2.75201 
-3.52537 -3.54221 2.29057 
-3.43622 -3.63135 0.828425 
-3.55596 -3.51162 3.70083 
-3.44552 -3.62206 2.37877 
-3.44253 -3.62505 2.92718 
-3.54215 -3.52543 2.82006 
-3.51718 -3.55039 2.82372 
-3.50862 -3.55895 1.11835 
-3.43294 -3.63464 -3.35749 
-3.53722 -3.53036 4.90631 
-3.42328 -3.6443 4.64232 
-3.42382 -3.64376 -4.08841 
-3.42306 -3.64452 0.833613 
-3.46097 -3.60661 3.83419 
-3.47767 -3.5899 0.380413 
-3.55067 -3.51691 4.93194 
-3.47752 -3.59005 0.131993 
-3.32342 -3.7324 -4.33592 
-3.29894 -3.75398 -2.02261 
-3.41306 -3.65338 1.05121 
-3.3979 -3.66674 3.03247 
-3.35532 -3.70428 -4.08597 
-3.29668 -3.75597 -3.21863 
-3.25305 -3.79444 -4.36125 
-3.31183 -3.74262 -1.0509 
-3.34903 -3.70982 1.13697 
-3.34449 -3.71383 -2.73095 
-3.24846 -3.79849 -2.62841 
-3.34683 -3.71176 0.272378 
-3.29387 -3.75845 -2.88202 
-3.36088 -3.69938 -1.48396 
-3.25113 -3.79613 -4.36766 
-3.41628 -3.65054 4.25047 
-3.40898 -3.65697 -1.08966 
-3.32375 -3.73211 -3.46095 
-3.39213 -3.67182 -3.67885 
-3.2926 -3.75957 -1.96097 
-3.33301 -3.72395 -0.0868254 
-3.23379 -3.81142 -4.64782 
-3.4072 -3.65854 1.03351 
-3.39043 -3.67332 -0.0584431 
-3.22007 -3.82352 -4.8526 
-3.32882 -3.72764 -2.65557 
-3.36939 -3.69188 -4.29533 
-3.33366 -3.72338 -0.863826 
-3.25127 -3.79601 -4.73693 
-3.41865 -3.64844 -4.97284 
-3.30901 -3.7451 -1.01917 
-3.22452 -3.81959 -4.91089 
-3.36271 -3.69776 0.533616 
-3.33497 -3.72222 2.98883 
-3.2698 -3.77967 1.13269 
-3.26011 -3.78822 3.70724 
-3.27822 -3.77225 2.56157 
-3.29918 -3.75377 1.45436 
-3.36589 -3.69496 3.25098 
-3.21811 -3.82524 -1.05762 
-3.32217 -3.7335 2.72271 
-3.26842 -3.78089 0.4738 
-3.19994 -3.84126 3.82717 
-3.26635 -3.78272 0.41673 
-3.27217 -3.77758 -0.603504 
-3.2641 -3.7847 0.909299 
-3.23399 -3.81125 3.4753 
-3.26299 -3.78567 -1.1156 
-3.35809 -3.70183 4.22452 
-3.31448 -3.74028 4.58525 
-3.24113 -3.80495 -0.0282292 
-3.19151 -3.84869 0.740837 
-3.1939 -3.84659 -4.66521 
-3.29548 -3.75703 0.645924 
-3.2781 -3.77236 2.28843 
-3.26781 -3.78143 3.79055 
-3.2736 -3.77632 1.48274 
-3.27358 -3.77634 3.15455 
-3.32587 -3.73024 4.12992 
-3.30225 -3.75107 1.76504 
-3.23594 -3.80953 0.230873 
-3.22591 -3.81837 1.53737 
-3.22891 -3.81572 0.222327 
-3.20174 -3.83967 -0.091403 
-3.32106 -3.73448 4.94476 
-3.24222 -3.80399 2.39372 
-3.09148 -3.92675 -4.80987 
-3.09418 -3.92466 0.125889 
-3.17157 -3.86463 -2.13858 
-3.13919 -3.88975 1.43757 
-3.04666 -3.96151 -3.88333 
-3.09647 -3.92288 -2.92962 
-3.18448 -3.85462 -3.43013 
-3.13992 -3.88918 0.622425 
-3.15401 -3.87825 -1.85446 
-3.07601 -3.93875 -4.24314 
-3.07842 -3.93688 -3.73501 
-3.11078 -3.91178 -2.27348 
-3.17664 -3.8607 -0.143589 
-3.07551 -3.93914 -4.94507 
-3.13226 -3.89512 0.207679 
-3.06375 -3.94826 -2.01346 
-3.15449 -3.87788 -3.67672 
-3.06433 -3.94781 -2.75597 
-3.1003 -3.91991 -2.65221 
-3.10835 -3.91366 -3.72188 
-3.10782 -3.91408 -1.96402 
-3.15963 -3.87389 1.2743 
-2.97365 -4.01815 -3.71731 
-3.18297 -3.85579 2.34855 
-3.1628 -3.87143 -4.75066 
-3.18419 -3.85484 -4.86084 
-3.05575 -3.95446 -1.58589 
-3.04801 -3.96047 -2.53136 
-3.11926 -3.9052 0.384076 
-3.15303 -3.87901 -4.55992 
-3.17278 -3.86369 2.82464 
-3.16449 -3.87012 1.65731 
-3.18024 -3.8579 -1.12232 
-3.06468 -3.94754 0.640431 
-3.02296 -3.9799 4.42747 
-2.94427 -4.04094 3.65108 
-3.07971 -3.93588 2.76757 
-2.98544 -4.009 3.37153 
-3.01926 -3.98277 1.02069 
-3.05792 -3.95278 0.0746179 
-2.98471 -4.00957 -1.66158 
-3.00805 -3.99147 1.1272 
-3.0301 -3.97436 3.69137 
-3.00532 -3.99359 -1.73147 
-2.9682 -4.02238 0.574816 
-2.97877 -4.01417 3.06879 
-2.9696 -4.02129 3.01355 
-2.97968 -4.01347 2.12302 
-2.98095 -4.01249 1.99545 
-3.04537 -3.96252 1.17817 
-3.13947 -3.88953 4.96368 
-3.00042 -3.99738 -1.07959 
-3.05842 -3.9524 0.0102239 
-3.09355 -3.92515 4.4702 
-2.99695 -4.00008 0.181128 
-3.00284 -3.99551 4.8178 
-2.99293 -4.00319 -1.33137 
-3.02251 -3.98025 -0.827509 
-2.96822 -4.02237 -2.28263 
-3.04579 -3.9622 0.728324 
-3.00309 -3.99532 1.64571 
-2.98837 -4.00673 -2.47429 
-2.99598 -4.00083 -1.76138 
-2.95432 -4.03314 -2.5866 
-2.97723 -4.01537 1.65151 
-2.97558 -4.01665 4.02371 
-2.85159 -4.10444 -3.12922 
-2.85707 -4.10071 -2.64641 
-2.93295 -4.04915 -3.69716 
-2.79586 -4.14231 -3.95596 
-2.84173 -4.11114 -3.54366 
-2.80086 -4.13892 -4.49339 
-2.82798 -4.12048 -2.60521 
-2.87489 -4.0886 0.855281 
-2.91546 -4.06103 3.51009 
-2.83195 -4.11778 -4.21384 
-2.9125 -4.06304 -3.75515 
-2.82349 -4.12353 -1.91 
-2.86532 -4.09511 -1.90146 
-2.91751 -4.05964 -4.25687 
-2.8796 -4.0854 -1.23035 
-2.90035 -4.0713 0.201574 
-2.89507 -4.07489 -1.65517 
-2.88071 -4.08465 2.72332 
-2.86865 -4.09285 -2.30827 
-2.82816 -4.12036 -1.08905 
-2.93892 -4.04509 2.27958 
-2.89009 -4.07827 -0.476852 
-2.80928 -4.13319 -4.79156 
-2.7898 -4.14643 -4.29228 
-2.90584 -4.06757 1.43635 
-2.79426 -4.1434 -1.28773 
-2.92493 -4.0546 -1.26728 
-2.81142 -4.13174 -1.83828 
-2.76189 -4.1654 -2.21366 
-2.74573 -4.17638 -4.70733 
-2.80424 -4.13662 -0.971557 
-2.90425 -4.06865 -0.259255 
-2.85942 -4.09912 1.41041 
-2.81112 -4.13194 0.329447 
-2.8716 -4.09084 3.42799 
-2.70075 -4.20695 -0.35142 
-2.70686 -4.2028 -0.691702 
-2.88867 -4.07924 3.89126 
-2.86441 -4.09573 2.88812 
-2.74195 -4.17895 4.13083 
-2.78616 -4.14891 2.32566 
-2.79025 -4.14612 0.312052 
-2.70855 -4.20165 -0.456404 
-2.80327 -4.13728 2.08151 
-2.78036 -4.15285 3.63613 
-2.87275 -4.09005 3.66848 
-2.78842 -4.14737 3.12647 
-2.7804 -4.15282 -1.04053 
-2.72352 -4.19147 0.191504 
-2.72586 -4.18988 -2.49138 
-2.78082 -4.15253 0.690176 
-2.77832 -4.15423 0.483261 
-2.70486 -4.20416 0.991394 
-2.77191 -4.15859 0.211951 
-2.75819 -4.16791 -1.07746 
-2.68295 -4.21905 -4.2877 
-2.85733 -4.10054 2.38762 
-2.69579 -4.21032 2.02078 
-2.72198 -4.19252 4.12992 
-2.7581 -4.16797 4.93713 
-2.74497 -4.1769 0.190893 
-2.74616 -4.17609 0.48143 
-2.76291 -4.16471 4.39055 
-2.82046 -4.1256 1.70217 
-2.73756 -4.18193 4.07895 
-2.81421 -4.12984 0.259865 
-2.56938 -4.28655 0.839107 
-2.59264 -4.27279 0.940123 
-2.66586 -4.22949 -4.66063 
-2.48789 -4.33474 -3.08557 
-2.56061 -4.29173 0.22599 
-2.58999 -4.27436 -2.14103 
-2.64848 -4.23977 0.571459 
-2.65341 -4.23686 -4.5233 
-2.50184 -4.32649 -3.45241 
-2.64911 -4.2394 1.84591 
-2.59285 -4.27267 -0.547349 
-2.62726 -4.25232 -0.660268 
-2.62749 -4.25218 -3.17621 
-2.62063 -4.25624 -1.65487 
-2.61737 -4.25816 1.1858 
-2.57027 -4.28602 -0.549181 
-2.55027 -4.29785 -1.00147 
-2.63846 -4.24569 0.117344 
-2.63298 -4.24893 -3.5815 
-2.61661 -4.25861 -2.19871 
-2.59948 -4.26875 -1.4507 
-2.64836 -4.23984 1.3741 
-2.59611 -4.27074 -3.46736 
-2.63021 -4.25057 1.01489 
-2.64132 -4.244 -0.848567 
-2.55654 -4.29414 -3.95566 
-2.60494 -4.26552 -1.07074 
-2.63208 -4.24947 -2.84875 
-2.66421 -4.23046 2.95251 
-2.63715 -4.24647 2.63512 
-2.65025 -4.23872 -0.693533 
-2.49633 -4.32975 -2.71661 
-2.57571 -4.2828 -3.21833 
-2.56772 -4.28753 4.34202 
-2.42589 -4.37141 2.82952 
-2.57235 -4.28479 1.13178 
-2.50587 -4.32411 -1.11835 
-2.49167 -4.33251 1.98721 
-2.4862 -4.33574 0.793634 
-2.46931 -4.34573 -2.19596 
-2.46938 -4.34569 -0.473189 
-2.44237 -4.36166 -1.09027 
-2.44831 -4.35815 1.2627 
-2.47198 -4.34415 -0.105441 
-2.48506 -4.33642 3.25648 
-2.41729 -4.37649 2.98456 
-2.45854 -4.3521 4.7058 
-2.62284 -4.25493 3.79757 
-2.45344 -4.35512 -0.734428 
-2.5534 -4.296 3.40785 
-2.41147 -4.37994 2.04184 
-2.54617 -4.30028 1.77816 
-2.44305 -4.36126 1.69027 
-2.41117 -4.38011 -4.0408 
-2.49203 -4.33229 -0.33494 
-2.47168 -4.34433 2.81671 
-2.45659 -4.35325 -0.824152 
-2.43143 -4.36813 4.8648 
-2.52243 -4.31432 1.89535 
-2.63516 -4.24764 3.76614 
-2.50949 -4.32197 1.52425 
-2.45386 -4.35487 -1.63533 
-2.45956 -4.35149 3.14417 
-2.4133 -4.37886 -2.68059 
-2.43942 -4.36341 4.42351 
-2.64672 -4.24081 4.07346 
-2.36092 -4.40591 -4.76135 
-2.33419 -4.41953 -4.37742 
-2.24391 -4.46553 -4.77294 
-2.38377 -4.39427 0.131077 
-2.37616 -4.39815 -0.831782 
-2.31252 -4.43058 -3.95352 
-2.22012 -4.47766 -2.54723 
-2.37558 -4.39844 -1.89474 
-2.38612 -4.39307 3.85769 
-2.36428 -4.4042 1.6921 
-2.26037 -4.45715 -1.11499 
-2.28471 -4.44475 -4.84436 
-2.38619 -4.39304 -4.15128 
-2.22333 -4.47602 -1.93045 
-2.39185 -4.39016 3.3343 
-2.36791 -4.40235 1.2212 
-2.33527 -4.41898 1.98141 
-2.37277 -4.39988 2.01712 
-2.31407 -4.42978 0.742058 
-2.31308 -4.43029 -0.171972 
-2.23547 -4.46983 -1.40553 
-2.32774 -4.42282 1.18213 
-2.30388 -4.43498 -1.65273 
-2.33609 -4.41857 2.05649 
-2.32492 -4.42426 -0.603809 
-2.29735 -4.43831 -3.23634 
-2.36226 -4.40523 -2.84631 
-2.3985 -4.38677 0.669728 
-2.35024 -4.41135 -2.82861 
-2.40656 -4.38266 -2.80084 
-2.3403 -4.41642 -0.527513 
-2.33359 -4.41984 -0.36668 
-2.31004 -4.43184 -2.37754 
-2.17266 -4.50184 -1.95334 
-2.17332 -4.5015 2.27378 
-2.28146 -4.4464 3.17621 
-2.27135 -4.45155 1.76046 
-2.20765 -4.48401 -0.923643 
-2.36646 -4.40309 4.19187 
-2.2157 -4.47991 -0.240028 
-2.21205 -4.48176 -0.589465 
-2.22374 -4.47581 -0.645924 
-2.25231 -4.46125 0.262002 
-2.1741 -4.5011 -0.33372 
-2.25496 -4.45991 2.48558 
-2.25297 -4.46091 4.89746 
-2.26036 -4.45715 3.45088 
-2.29566 -4.43916 4.8587 
-2.33822 -4.41748 4.42595 
-2.19241 -4.49177 -0.27543 
-2.1871 -4.49448 0.899228 
-2.20311 -4.48632 3.18598 
-2.15191 -4.51241 2.34672 
-2.28882 -4.44265 1.06067 
-2.26483 -4.45487 4.67833 
-2.15863 -4.50899 0.725883 
-2.27217 -4.45114 4.44517 
-2.23504 -4.47005 -0.00106812 
-2.18819 -4.49392 4.68566 
-2.28187 -4.44619 1.16626 
-2.25685 -4.45894 3.87539 
-2.15442 -4.51113 1.8157 
-2.35421 -4.40933 4.91516 
-2.15264 -4.51204 0.473495 
-2.13851 -4.51924 3.82138 
-2.16578 -4.50534 -1.25568 
-2.09555 -4.53857 -1.82699 
-1.90712 -4.62011 -3.14356 
-2.04504 -4.56043 -1.01886 
-2.08571 -4.54283 -0.454573 
-2.03879 -4.56313 -4.31089 
-2.02294 -4.56999 0.912961 
-2.01153 -4.57492 -4.74853 
-2.11577 -4.52982 2.17856 
-2.10868 -4.53288 -3.19514 
-1.96643 -4.59444 -1.39851 
-1.94668 -4.60299 -4.47752 
-1.98109 -4.5881 -4.3701 
-2.04248 -4.56153 1.4742 
-2.10549 -4.53426 -0.042573 
-2.0809 -4.5449 2.24906 
-2.09888 -4.53713 -1.70217 
-1.98718 -4.58546 -4.41191 
-2.1268 -4.52504 0.96118 
-2.03466 -4.56491 0.659963 
-2.04691 -4.55961 -3.67977 
-2.08551 -4.54291 -2.98212 
-2.08741 -4.54209 -0.833308 
-1.98105 -4.58811 -0.518357 
-1.96498 -4.59507 -3.66207 
-2.11681 -4.52937 3.56594 
-2.05824 -4.55471 2.33207 
-2.02645 -4.56847 0.873898 
-2.12255 -4.52688 0.472579 
-1.93306 -4.60888 -4.43693 
-1.90611 -4.62054 -3.92605 
-1.95248 -4.60048 -4.41618 
-2.08532 -4.54299 -1.60054 
-1.9609 -4.59683 -2.04489 
-1.91721 -4.61574 2.27653 
-1.85129 -4.64426 -3.33155 
-1.86588 -4.63795 3.89035 
-1.97886 -4.58906 0.857723 
-1.96556 -4.59482 3.02423 
-1.98445 -4.58664 3.25007 
-1.85749 -4.64158 -4.23429 
-2.03989 -4.56265 4.91211 
-1.97582 -4.59038 3.74264 
-1.895 -4.62535 -2.56249 
-2.00109 -4.57944 3.41975 
-1.89731 -4.62435 4.541 
-1.9184 -4.61522 1.52608 
-1.86774 -4.63715 -0.7622 
-1.99762 -4.58094 3.89523 
-1.84847 -4.64549 -1.90298 
-1.92291 -4.61328 3.31141 
-1.88222 -4.63088 0.436567 
-1.98255 -4.58746 1.5041 
-1.99047 -4.58404 1.21693 
-1.93945 -4.60611 -0.635243 
-1.92979 -4.61029 -1.06586 
-2.01388 -4.57391 1.93869 
-1.97807 -4.5894 3.68801 
-1.90269 -4.62202 -2.36076 
-1.94981 -4.60163 -0.957213 
-1.88812 -4.62833 -1.98965 
-1.9404 -4.6057 4.12809 
-1.85776 -4.64147 -0.256813 
-1.89241 -4.62647 4.26878 
-1.99675 -4.58132 1.00909 
-1.87177 -4.63541 -3.16431 
-2.10316 -4.53527 4.75799 
-1.6927 -4.70214 -2.15751 
-1.80234 -4.66266 3.23237 
-1.82014 -4.65626 -0.475631 
-1.80231 -4.66268 0.454878 
-1.74425 -4.68358 -0.0621052 
-1.78772 -4.66793 -0.483261 
-1.68381 -4.70534 -4.46532 
-1.74852 -4.68204 -3.34864 
-1.76892 -4.6747 -3.5818 
-1.71857 -4.69282 -3.98099 
-1.6036 -4.73422 -4.2053 
-1.66946 -4.7105 -3.12281 
-1.77351 -4.67305 -0.502792 
-1.67853 -4.70724 -3.61293 
-1.65926 -4.71418 -2.69341 
-1.60402 -4.73407 -3.02545 
-1.81752 -4.6572 0.487838 
-1.74645 -4.68279 -0.96057 
-1.73531 -4.6868 -3.97122 
-1.73999 -4.68511 0.344096 
-1.70031 -4.6994 -1.95425 
-1.75506 -4.67969 -2.62322 
-1.71311 -4.69479 0.502487 
-1.68846 -4.70367 -4.40947 
-1.71955 -4.69247 -4.83825 
-1.81046 -4.65974 -1.20075 
-1.71123 -4.69547 -2.27226 
-1.7464 -4.68281 -3.82809 
-1.84005 -4.64909 -4.90326 
-1.83954 -4.64927 -0.198828 
-1.6808 -4.70642 -2.29698 
-1.75285 -4.68048 -4.73235 
-1.74049 -4.68493 -4.90661 
-1.65213 -4.71674 1.54775 
-1.59383 -4.73773 4.06888 
-1.67068 -4.71007 2.90124 
-1.61803 -4.72902 1.84896 
-1.70553 -4.69752 4.90234 
-1.55693 -4.75102 2.6281 
-1.71575 -4.69384 2.13126 
-1.72756 -4.68959 3.46767 
-1.66937 -4.71054 3.38649 
-1.70842 -4.69648 1.1156 
-1.55261 -4.75257 1.06616 
-1.59543 -4.73716 2.42882 
-1.69064 -4.70288 4.13358 
-1.55979 -4.74999 1.3094 
-1.72267 -4.69135 3.67946 
-1.59025 -4.73902 4.77844 
-1.72456 -4.69067 4.33287 
-1.58079 -4.74243 2.10349 
-1.5731 -4.7452 -1.29139 
-1.66512 -4.71207 3.54366 
-1.56641 -4.74761 2.20267 
-1.70806 -4.69661 2.87561 
-1.73108 -4.68832 1.60237 
-1.60548 -4.73354 3.7347 
-1.61795 -4.72905 -1.95456 
-1.55038 -4.75338 -4.34355 
-1.64413 -4.71963 4.22636 
-1.61261 -4.73097 -1.34663 
-1.71928 -4.69257 4.30265 
-1.68811 -4.70379 1.53767 
-1.82242 -4.65544 4.74426 
-1.62314 -4.72718 3.99899 
-1.57128 -4.74585 1.97592 
-1.51123 -4.76512 -1.03046 
-1.50323 -4.76744 3.02911 
-1.42745 -4.78946 -3.85495 
-1.48988 -4.77132 2.75292 
-1.38613 -4.80146 -1.6863 
-1.41782 -4.79226 -2.72576 
-1.33823 -4.81538 -3.39106 
-1.38746 -4.80108 -1.43422 
-1.46218 -4.77937 -4.35972 
-1.52415 -4.76136 2.25211 
-1.53679 -4.75769 -0.0236516 
-1.51429 -4.76423 -4.39604 
-1.41355 -4.7935 -0.116428 
-1.39424 -4.79911 -1.60451 
-1.37731 -4.80402 -3.75729 
-1.54386 -4.75564 0.365459 
-1.50991 -4.7655 0.533921 
-1.51981 -4.76262 -1.44276 
-1.4562 -4.78111 1.80746 
-1.5415 -4.75632 2.56066 
-1.48653 -4.77229 2.18253 
-1.37001 -4.80615 -1.58559 
-1.3752 -4.80464 -2.58934 
-1.51363 -4.76442 0.454268 
-1.40446 -4.79614 -0.380413 
-1.4763 -4.77527 -4.13633 
-1.45692 -4.7809 -4.19767 
-1.47077 -4.77687 1.41285 
-1.53223 -4.75902 -0.507065 
-1.48214 -4.77357 1.03076 
-1.47523 -4.77558 1.33808 
-1.43228 -4.78806 -3.00348 
-1.52041 -4.76245 0.522935 
-1.36906 -4.80642 -0.120396 
-1.44988 -4.78294 4.19889 
-1.27714 -4.83313 1.51387 
-1.35012 -4.81192 4.28861 
-1.39157 -4.79988 4.70183 
-1.25684 -4.83903 -4.48241 
-1.3813 -4.80287 0.677663 
-1.33908 -4.81513 2.67968 
-1.34346 -4.81386 1.13483 
-1.32308 -4.81978 -0.519883 
-1.27416 -4.83399 0.283364 
-1.24512 -4.84243 -1.94296 
-1.32101 -4.82038 -1.63381 
-1.3265 -4.81879 3.22779 
-1.27314 -4.83429 -3.41548 
-1.424 -4.79046 1.5746 
-1.29448 -4.82809 3.58699 
-1.28772 -4.83006 -1.89444 
-1.24435 -4.84265 0.949889 
-1.36664 -4.80712 3.58974 
-1.40752 -4.79525 0.785699 
-1.26559 -4.83648 0.551012 
-1.35096 -4.81168 4.82757 
-1.2741 -4.83401 3.09442 
-1.41141 -4.79412 3.73348 
-1.27564 -4.83356 -0.426497 
-1.33588 -4.81606 -1.53188 
-1.26526 -4.83658 -2.68364 
-1.39221 -4.7997 4.69176 
-1.25985 -4.83815 3.82748 
-1.3122 -4.82294 4.29991 
-1.33381 -4.81666 -0.431379 
-1.33678 -4.8158 -0.74633 
-1.21094 -4.85018 -0.0889616 
-1.19831 -4.85301 -1.48122 
-1.21213 -4.84992 2.56981 
-1.05073 -4.88599 -1.56087 
-1.18458 -4.85608 -2.88629 
-1.14356 -4.86524 -1.26057 
-1.19104 -4.85463 -3.43959 
-1.12818 -4.86868 0.865047 
-1.13795 -4.8665 -4.0936 
-1.06799 -4.88214 -1.11652 
-1.18159 -4.85674 -1.76443 
-1.18983 -4.8549 -0.897092 
-1.12717 -4.86891 0.866268 
-1.01545 -4.89388 -3.12708 
-1.12934 -4.86842 -1.88864 
-1.05702 -4.88459 -3.22504 
-1.21833 -4.84853 -2.51488 
-1.10331 -4.87424 -3.3816 
-1.18542 -4.85589 2.82464 
-1.18949 -4.85498 -1.22791 
-1.11306 -4.87206 -0.660268 
-1.20501 -4.85151 3.70144 
-1.17148 -4.859 0.668813 
-1.04487 -4.8873 -4.84985 
-1.05341 -4.8854 -3.83297 
-1.21802 -4.8486 -1.57247 
-1.09828 -4.87536 -4.67559 
-1.08287 -4.87881 -3.51588 
-1.21345 -4.84962 -3.31294 
-1.08067 -4.8793 -2.77856 
-1.18444 -4.85611 -0.970641 
-1.09799 -4.87543 -0.467086 
-1.09934 -4.87513 -4.81323 
-1.12597 -4.86917 4.22605 
-0.946681 -4.90925 -1.47511 
-0.980818 -4.90162 -3.10266 
-1.06623 -4.88253 4.38749 
-1.09677 -4.8757 3.61019 
-1.1795 -4.85721 4.36064 
-1.04209 -4.88793 0.611133 
-1.06129 -4.88363 0.822931 
-1.06069 -4.88377 2.18863 
-1.11467 -4.8717 1.4037 
-1.01126 -4.89482 4.51842 
-1.13342 -4.86751 2.51244 
-1.06618 -4.88254 0.587329 
-1.00874 -4.89538 3.22443 
-0.94292 -4.91009 0.134739 
-1.16659 -4.8601 4.97558 
-1.13243 -4.86773 1.66402 
-1.13237 -4.86774 1.67653 
-1.01854 -4.89319 2.14652 
-0.93987 -4.91077 -2.49962 
-0.997012 -4.898 -2.82098 
-0.974157 -4.90311 -0.0346384 
-0.963034 -4.9056 1.7925 
-0.950572 -4.90838 -0.682241 
-1.15885 -4.86183 3.35047 
-0.954726 -4.90745 1.99179 
-0.962865 -4.90563 -0.893735 
-1.18361 -4.85629 3.38618 
-0.945549 -4.9095 -2.62413 
-1.12438 -4.86953 2.43767 
-1.01269 -4.8945 2.55119 
-1.02768 -4.89115 4.47295 
-0.948982 -4.90874 -2.29331 
-0.920004 -4.91411 1.45192 
-0.730179 -4.94418 -1.88589 
-0.786277 -4.93529 -0.694448 
-0.72197 -4.94548 -2.00827 
-0.773429 -4.93733 -2.25303 
-0.774716 -4.93712 -0.495163 
-0.715503 -4.9465 -4.00693 
-0.929141 -4.91267 4.24284 
-0.816963 -4.93043 -4.11679 
-0.785018 -4.93549 -2.82128 
-0.779971 -4.93629 -3.5345 
-0.800252 -4.93308 -2.79229 
-0.770484 -4.9378 -2.7456 
-0.890975 -4.91871 -2.03391 
-0.920156 -4.91409 -1.798 
-0.92738 -4.91295 -4.73418 
-0.851162 -4.92502 -3.35261 
-0.925685 -4.91321 4.63256 
-0.814482 -4.93083 -2.66717 
-0.798623 -4.93334 -3.58913 
-0.721544 -4.94555 -3.91934 
-0.680897 -4.95198 -4.65636 
-0.821877 -4.92966 -4.28709 
-0.929501 -4.91261 0.208899 
-0.659944 -4.9553 -4.42686 
-0.818175 -4.93024 -0.938597 
-0.856558 -4.92416 0.701163 
-0.747571 -4.94142 -1.78274 
-0.91651 -4.91467 -1.27949 
-0.894374 -4.91817 2.86554 
-0.925789 -4.9132 -0.833003 
-0.880882 -4.92031 2.92657 
-0.91847 -4.91436 0.428633 
-0.673843 -4.9531 2.88751 
-0.864 -4.92298 2.9107 
-0.756131 -4.94007 2.66045 
-0.643404 -4.95792 3.5992 
-0.772548 -4.93747 3.48415 
-0.684296 -4.95145 4.63744 
-0.759994 -4.93946 -0.307169 
-0.789515 -4.93478 1.0979 
-0.741086 -4.94245 0.323344 
-0.724943 -4.94501 1.90786 
-0.688405 -4.9508 0.692312 
-0.722651 -4.94537 0.646534 
-0.667008 -4.95418 -2.47032 
-0.683349 -4.9516 -1.84011 
-0.663447 -4.95475 4.51811 
-0.756178 -4.94006 -0.0205998 
-0.64809 -4.95718 -0.175634 
-0.690469 -4.95047 -0.676138 
-0.689721 -4.95059 0.0556965 
-0.741521 -4.94238 -0.0718713 
-0.713912 -4.94676 2.39311 
-0.687478 -4.95094 0.513779 
-0.665966 -4.95435 1.20746 
-0.702778 -4.94852 -1.08203 
-0.67034 -4.95366 -1.20563 
-0.709169 -4.94751 3.41853 
-0.733208 -4.9437 2.09586 
-0.677545 -4.95252 1.13575 
-0.696084 -4.94958 3.93582 
-0.637354 -4.95888 -1.59413 
-0.723257 -4.94528 4.44823 
-0.731807 -4.94392 2.56829 
-0.687506 -4.95094 -2.30735 
-0.565375 -4.96637 -1.68477 
-0.611347 -4.96202 -3.84152 
-0.621482 -4.96106 0.0184636 
-0.583985 -4.96461 0.698721 
-0.615259 -4.96165 -0.995972 
-0.524901 -4.97019 -4.24406 
-0.619726 -4.96123 2.72179 
-0.535867 -4.96916 -4.65453 
-0.438293 -4.97838 -3.48018 
-0.438513 -4.97836 -4.83032 
-0.563486 -4.96655 -4.15036 
-0.33341 -4.98829 -4.90082 
-0.625471 -4.96069 -1.46443 
-0.538138 -4.96894 1.02802 
-0.528251 -4.96988 -2.13004 
-0.593891 -4.96367 -3.9642 
-0.536859 -4.96906 0.887936 
-0.485801 -4.97389 -4.05209 
-0.50548 -4.97203 0.912351 
-0.613064 -4.96186 -2.64977 
-0.509784 -4.97162 -1.83828 
-0.444497 -4.97779 -3.14661 
-0.488855 -4.9736 -3.98038 
-0.464128 -4.97594 -3.26899 
-0.583231 -4.96468 -2.4221 
-0.596611 -4.96342 -4.54711 
-0.519633 -4.97069 0.377361 
-0.488177 -4.97366 -4.44823 
-0.524004 -4.97028 -1.01276 
-0.425744 -4.97957 -4.53001 
-0.531209 -4.9696 1.69729 
-0.407849 -4.98126 -2.73461 
-0.57992 -4.96499 -0.356914 
-0.436079 -4.97859 2.97693 
-0.391539 -4.9828 1.37043 
-0.389087 -4.98303 1.07715 
-0.405187 -4.98151 -2.00613 
-0.379896 -4.9839 2.64 
-0.4854 -4.97393 2.43187 
-0.451578 -4.97712 4.4528 
-0.428893 -4.97927 0.394452 
-0.396722 -4.98231 -1.42628 
-0.34678 -4.98703 -2.56493 
-0.429427 -4.97922 3.74569 
-0.385327 -4.98339 -1.24775 
-0.389268 -4.98301 -0.348369 
-0.323055 -4.98927 -2.90857 
-0.465139 -4.97584 1.1626 
-0.561396 -4.96674 3.82809 
-0.373292 -4.98452 -2.0333 
-0.427538 -4.9794 3.20063 
-0.337008 -4.98795 1.16688 
